-1115.159096 -951.626265 -149.084176
-1116.923199 -952.410311 -149.606874
-1118.687302 -953.194356 -150.129571
-1120.451405 -953.978402 -150.652268
-1122.215508 -954.762448 -151.174965
-1123.979611 -955.546494 -151.697663
-1125.743714 -956.330540 -152.220360
-1127.507817 -957.114585 -152.743057
-1129.271920 -957.898631 -153.265754
-1131.036023 -958.682677 -153.788451
-1132.800127 -959.466723 -154.311149
-1134.564230 -960.250769 -154.833846
-1136.328333 -961.034815 -155.356543
-1138.092436 -961.818860 -155.879240
-1139.856539 -962.602906 -156.401937
-1141.620642 -963.386952 -156.924635
-1143.384745 -964.170998 -157.447332
-1145.148848 -964.955044 -157.970029
-1146.912951 -965.739090 -158.492726
-1148.677055 -966.523135 -159.015424
-1152.000000 -968.000000 -160.000000
-1152.823173 -968.000000 -158.177259
-1153.646347 -968.000000 -156.354518
-1154.469520 -968.000000 -154.531776
-1155.292694 -968.000000 -152.709035
-1156.115867 -968.000000 -150.886294
-1156.939041 -968.000000 -149.063553
-1157.762214 -968.000000 -147.240812
-1158.585388 -968.000000 -145.418070
-1159.408561 -968.000000 -143.595329
-1160.231734 -968.000000 -141.772588
-1161.054908 -968.000000 -139.949847
-1161.878081 -968.000000 -138.127106
-1162.701255 -968.000000 -136.304364
-1163.524428 -968.000000 -134.481623
-1164.347602 -968.000000 -132.658882
-1165.170775 -968.000000 -130.836141
-1165.993949 -968.000000 -129.013400
-1166.817122 -968.000000 -127.190658
-1167.640295 -968.000000 -125.367917
-1168.463469 -968.000000 -123.545176
-1169.286642 -968.000000 -121.722435
-1170.109816 -968.000000 -119.899694
-1170.932989 -968.000000 -118.076952
-1171.756163 -968.000000 -116.254211
-1172.579336 -968.000000 -114.431470
-1173.402510 -968.000000 -112.608729
-1174.225683 -968.000000 -110.785988
-1175.048856 -968.000000 -108.963246
-1175.872030 -968.000000 -107.140505
-1176.695203 -968.000000 -105.317764
-1177.518377 -968.000000 -103.495023
-1178.341550 -968.000000 -101.672282
-1179.164724 -968.000000 -99.849540
-1179.987897 -968.000000 -98.026799
-1180.811071 -968.000000 -96.204058
-1181.634244 -968.000000 -94.381317
-1182.457417 -968.000000 -92.558576
-1183.280591 -968.000000 -90.735834
-1184.103764 -968.000000 -88.913093
-1184.926938 -968.000000 -87.090352
-1185.750111 -968.000000 -85.267611
-1186.573285 -968.000000 -83.444870
-1187.396458 -968.000000 -81.622128
-1188.219632 -968.000000 -79.799387
-1189.042805 -968.000000 -77.976646
-1189.865978 -968.000000 -76.153905
-1190.689152 -968.000000 -74.331164
-1191.512325 -968.000000 -72.508422
-1192.335499 -968.000000 -70.685681
-1193.158672 -968.000000 -68.862940
-1193.981846 -968.000000 -67.040199
-1194.805019 -968.000000 -65.217458
-1195.628193 -968.000000 -63.394716
-1196.451366 -968.000000 -61.571975
-1197.274539 -968.000000 -59.749234
-1198.097713 -968.000000 -57.926493
-1198.920886 -968.000000 -56.103752
-1199.744060 -968.000000 -54.281010
-1200.567233 -968.000000 -52.458269
-1201.390407 -968.000000 -50.635528
-1202.213580 -968.000000 -48.812787
-1203.036754 -968.000000 -46.990046
-1203.859927 -968.000000 -45.167304
-1204.683100 -968.000000 -43.344563
-1205.506274 -968.000000 -41.521822
-1206.329447 -968.000000 -39.699081
-1207.152621 -968.000000 -37.876340
-1207.975794 -968.000000 -36.053598
-1208.798968 -968.000000 -34.230857
-1209.622141 -968.000000 -32.408116
-1210.445315 -968.000000 -30.585375
-1211.268488 -968.000000 -28.762634
-1212.091661 -968.000000 -26.939892
-1212.914835 -968.000000 -25.117151
-1213.738008 -968.000000 -23.294410
-1214.561182 -968.000000 -21.471669
-1215.384355 -968.000000 -19.648928
-1216.207529 -968.000000 -17.826186
-1217.030702 -968.000000 -16.003445
-1217.853876 -968.000000 -14.180704
-1218.677049 -968.000000 -12.357963
-1219.500222 -968.000000 -10.535222
-1220.323396 -968.000000 -8.712480
-1221.146569 -968.000000 -6.889739
-1221.969743 -968.000000 -5.066998
-1222.792916 -968.000000 -3.244257
-1223.616090 -968.000000 -1.421516
-1224.439263 -968.000000 0.401226
-1225.262437 -968.000000 2.223967
-1226.085610 -968.000000 4.046708
-1226.908783 -968.000000 5.869449
-1227.731957 -968.000000 7.692190
-1228.555130 -968.000000 9.514932
-1229.378304 -968.000000 11.337673
-1230.201477 -968.000000 13.160414
-1231.024651 -968.000000 14.983155
-1231.847824 -968.000000 16.805896
-1232.670998 -968.000000 18.628638
-1233.494171 -968.000000 20.451379
-1234.317344 -968.000000 22.274120
-1235.140518 -968.000000 24.096861
-1235.963691 -968.000000 25.919602
-1236.786865 -968.000000 27.742344
-1237.610038 -968.000000 29.565085
-1238.433212 -968.000000 31.387826
-1239.256385 -968.000000 33.210567
-1240.079559 -968.000000 35.033308
-1240.902732 -968.000000 36.856050
-1241.725905 -968.000000 38.678791
-1242.549079 -968.000000 40.501532
-1243.372252 -968.000000 42.324273
-1244.195426 -968.000000 44.147014
-1245.018599 -968.000000 45.969756
-1245.841773 -968.000000 47.792497
-1246.664946 -968.000000 49.615238
-1247.488120 -968.000000 51.437979
-1248.311293 -968.000000 53.260720
-1249.134466 -968.000000 55.083462
-1249.957640 -968.000000 56.906203
-1250.780813 -968.000000 58.728944
-1251.603987 -968.000000 60.551685
-1252.427160 -968.000000 62.374426
-1253.250334 -968.000000 64.197168
-1254.073507 -968.000000 66.019909
-1254.896681 -968.000000 67.842650
-1255.719854 -968.000000 69.665391
-1256.543027 -968.000000 71.488132
-1257.366201 -968.000000 73.310874
-1258.189374 -968.000000 75.133615
-1259.012548 -968.000000 76.956356
-1259.835721 -968.000000 78.779097
-1260.658895 -968.000000 80.601838
-1261.482068 -968.000000 82.424580
-1262.305242 -968.000000 84.247321
-1263.128415 -968.000000 86.070062
-1263.951589 -968.000000 87.892803
-1264.774762 -968.000000 89.715544
-1265.597935 -968.000000 91.538286
-1266.421109 -968.000000 93.361027
-1267.244282 -968.000000 95.183768
-1268.067456 -968.000000 97.006509
-1268.890629 -968.000000 98.829250
-1269.713803 -968.000000 100.651992
-1270.536976 -968.000000 102.474733
-1271.360150 -968.000000 104.297474
-1272.183323 -968.000000 106.120215
-1273.006496 -968.000000 107.942956
-1273.829670 -968.000000 109.765697
-1274.652843 -968.000000 111.588439
-1275.476017 -968.000000 113.411180
-1276.299190 -968.000000 115.233921
-1277.122364 -968.000000 117.056662
-1277.945537 -968.000000 118.879403
-1278.768711 -968.000000 120.702145
-1279.591884 -968.000000 122.524886
-1280.415057 -968.000000 124.347627
-1281.238231 -968.000000 126.170368
-1282.061404 -968.000000 127.993109
-1282.884578 -968.000000 129.815851
-1283.707751 -968.000000 131.638592
-1284.530925 -968.000000 133.461333
-1285.354098 -968.000000 135.284074
-1286.177272 -968.000000 137.106815
-1287.000445 -968.000000 138.929557
-1287.823618 -968.000000 140.752298
-1288.646792 -968.000000 142.575039
-1289.469965 -968.000000 144.397780
-1290.293139 -968.000000 146.220521
-1291.116312 -968.000000 148.043263
-1291.939486 -968.000000 149.866004
-1292.762659 -968.000000 151.688745
-1293.585833 -968.000000 153.511486
-1294.409006 -968.000000 155.334227
-1295.232179 -968.000000 157.156969
-1296.055353 -968.000000 158.979710
-1296.878526 -968.000000 160.802451
-1297.701700 -968.000000 162.625192
-1298.524873 -968.000000 164.447933
-1299.348047 -968.000000 166.270675
-1300.171220 -968.000000 168.093416
-1300.994394 -968.000000 169.916157
-1301.817567 -968.000000 171.738898
-1302.640740 -968.000000 173.561639
-1303.463914 -968.000000 175.384381
-1304.287087 -968.000000 177.207122
-1305.110261 -968.000000 179.029863
-1305.933434 -968.000000 180.852604
-1306.756608 -968.000000 182.675345
-1307.579781 -968.000000 184.498087
-1308.402955 -968.000000 186.320828
-1309.226128 -968.000000 188.143569
-1310.049301 -968.000000 189.966310
-1310.872475 -968.000000 191.789051
-1311.695648 -968.000000 193.611793
-1312.518822 -968.000000 195.434534
-1313.341995 -968.000000 197.257275
-1314.165169 -968.000000 199.080016
-1314.988342 -968.000000 200.902757
-1315.811516 -968.000000 202.725499
-1316.634689 -968.000000 204.548240
-1317.457862 -968.000000 206.370981
-1318.281036 -968.000000 208.193722
-1319.104209 -968.000000 210.016463
-1319.927383 -968.000000 211.839205
-1320.750556 -968.000000 213.661946
-1321.573730 -968.000000 215.484687
-1322.396903 -968.000000 217.307428
-1323.220077 -968.000000 219.130169
-1324.043250 -968.000000 220.952911
-1324.866423 -968.000000 222.775652
-1325.689597 -968.000000 224.598393
-1326.512770 -968.000000 226.421134
-1327.335944 -968.000000 228.243875
-1328.159117 -968.000000 230.066617
-1328.982291 -968.000000 231.889358
-1329.805464 -968.000000 233.712099
-1330.628638 -968.000000 235.534840
-1331.451811 -968.000000 237.357581
-1332.274984 -968.000000 239.180323
-1333.098158 -968.000000 241.003064
-1333.921331 -968.000000 242.825805
-1334.744505 -968.000000 244.648546
-1335.567678 -968.000000 246.471287
-1336.390852 -968.000000 248.294029
-1337.214025 -968.000000 250.116770
-1338.037199 -968.000000 251.939511
-1338.860372 -968.000000 253.762252
-1339.683545 -968.000000 255.584993
-1340.506719 -968.000000 257.407735
-1341.329892 -968.000000 259.230476
-1342.153066 -968.000000 261.053217
-1342.976239 -968.000000 262.875958
-1343.799413 -968.000000 264.698699
-1344.622586 -968.000000 266.521441
-1345.445760 -968.000000 268.344182
-1346.268933 -968.000000 270.166923
-1347.092106 -968.000000 271.989664
-1347.915280 -968.000000 273.812405
-1348.738453 -968.000000 275.635147
-1349.561627 -968.000000 277.457888
-1350.384800 -968.000000 279.280629
-1351.207974 -968.000000 281.103370
-1352.031147 -968.000000 282.926111
-1352.854321 -968.000000 284.748853
-1353.677494 -968.000000 286.571594
-1354.500667 -968.000000 288.394335
-1355.323841 -968.000000 290.217076
-1356.147014 -968.000000 292.039817
-1356.970188 -968.000000 293.862559
-1357.793361 -968.000000 295.685300
-1358.616535 -968.000000 297.508041
-1359.439708 -968.000000 299.330782
-1360.262882 -968.000000 301.153523
-1361.086055 -968.000000 302.976265
-1361.909228 -968.000000 304.799006
-1362.732402 -968.000000 306.621747
-1363.555575 -968.000000 308.444488
-1364.378749 -968.000000 310.267229
-1365.201922 -968.000000 312.089971
-1366.025096 -968.000000 313.912712
-1366.848269 -968.000000 315.735453
-1367.671443 -968.000000 317.558194
-1368.494616 -968.000000 319.380935
-1369.317789 -968.000000 321.203677
-1370.140963 -968.000000 323.026418
-1370.964136 -968.000000 324.849159
-1371.787310 -968.000000 326.671900
-1372.610483 -968.000000 328.494641
-1373.433657 -968.000000 330.317383
-1374.256830 -968.000000 332.140124
-1375.080004 -968.000000 333.962865
-1376.000000 -968.000000 336.000000
-1375.504836 -966.334448 336.990328
-1375.009672 -964.668896 337.980656
-1374.514508 -963.003345 338.970984
-1374.019344 -961.337793 339.961312
-1373.524180 -959.672241 340.951641
-1373.029016 -958.006689 341.941969
-1372.533852 -956.341137 342.932297
-1372.038688 -954.675586 343.922625
-1371.543524 -953.010034 344.912953
-1371.048359 -951.344482 345.903281
-1370.553195 -949.678930 346.893609
-1370.058031 -948.013378 347.883937
-1369.562867 -946.347827 348.874265
-1369.067703 -944.682275 349.864593
-1368.572539 -943.016723 350.854922
-1368.077375 -941.351171 351.845250
-1367.582211 -939.685619 352.835578
-1367.087047 -938.020068 353.825906
-1366.591883 -936.354516 354.816234
-1366.096719 -934.688964 355.806562
-1365.601555 -933.023412 356.796890
-1365.106391 -931.357860 357.787218
-1364.611227 -929.692308 358.777546
-1364.116063 -928.026757 359.767874
-1363.620899 -926.361205 360.758203
-1363.125735 -924.695653 361.748531
-1362.630571 -923.030101 362.738859
-1362.135407 -921.364549 363.729187
-1361.640243 -919.698998 364.719515
-1361.145078 -918.033446 365.709843
-1360.649914 -916.367894 366.700171
-1360.154750 -914.702342 367.690499
-1359.659586 -913.036790 368.680827
-1359.164422 -911.371239 369.671155
-1358.669258 -909.705687 370.661484
-1358.174094 -908.040135 371.651812
-1357.678930 -906.374583 372.642140
-1357.183766 -904.709031 373.632468
-1356.688602 -903.043480 374.622796
-1356.193438 -901.377928 375.613124
-1355.698274 -899.712376 376.603452
-1355.203110 -898.046824 377.593780
-1354.707946 -896.381272 378.584108
-1354.212782 -894.715721 379.574436
-1353.717618 -893.050169 380.564765
-1353.222454 -891.384617 381.555093
-1352.727290 -889.719065 382.545421
-1352.232126 -888.053513 383.535749
-1351.736962 -886.387962 384.526077
-1351.241797 -884.722410 385.516405
-1350.746633 -883.056858 386.506733
-1350.251469 -881.391306 387.497061
-1349.756305 -879.725754 388.487389
-1349.261141 -878.060203 389.477717
-1348.765977 -876.394651 390.468046
-1348.270813 -874.729099 391.458374
-1347.775649 -873.063547 392.448702
-1347.280485 -871.397995 393.439030
-1346.785321 -869.732443 394.429358
-1346.290157 -868.066892 395.419686
-1345.794993 -866.401340 396.410014
-1345.299829 -864.735788 397.400342
-1344.804665 -863.070236 398.390670
-1344.309501 -861.404684 399.380998
-1343.814337 -859.739133 400.371327
-1343.319173 -858.073581 401.361655
-1342.824009 -856.408029 402.351983
-1342.328845 -854.742477 403.342311
-1341.833681 -853.076925 404.332639
-1341.338516 -851.411374 405.322967
-1340.843352 -849.745822 406.313295
-1340.348188 -848.080270 407.303623
-1339.853024 -846.414718 408.293951
-1339.357860 -844.749166 409.284279
-1338.862696 -843.083615 410.274608
-1338.367532 -841.418063 411.264936
-1337.872368 -839.752511 412.255264
-1337.377204 -838.086959 413.245592
-1336.882040 -836.421407 414.235920
-1336.386876 -834.755856 415.226248
-1335.891712 -833.090304 416.216576
-1335.396548 -831.424752 417.206904
-1334.901384 -829.759200 418.197232
-1334.406220 -828.093648 419.187560
-1333.911056 -826.428097 420.177889
-1333.415892 -824.762545 421.168217
-1332.920728 -823.096993 422.158545
-1332.425564 -821.431441 423.148873
-1331.930400 -819.765889 424.139201
-1331.435235 -818.100338 425.129529
-1330.940071 -816.434786 426.119857
-1330.444907 -814.769234 427.110185
-1329.949743 -813.103682 428.100513
-1329.454579 -811.438130 429.090841
-1328.959415 -809.772578 430.081170
-1328.464251 -808.107027 431.071498
-1327.969087 -806.441475 432.061826
-1327.473923 -804.775923 433.052154
-1326.978759 -803.110371 434.042482
-1326.483595 -801.444819 435.032810
-1325.988431 -799.779268 436.023138
-1325.493267 -798.113716 437.013466
-1324.998103 -796.448164 438.003794
-1324.502939 -794.782612 438.994122
-1324.007775 -793.117060 439.984451
-1323.512611 -791.451509 440.974779
-1323.017447 -789.785957 441.965107
-1322.522283 -788.120405 442.955435
-1322.027119 -786.454853 443.945763
-1321.531954 -784.789301 444.936091
-1321.036790 -783.123750 445.926419
-1320.541626 -781.458198 446.916747
-1320.046462 -779.792646 447.907075
-1319.551298 -778.127094 448.897403
-1319.056134 -776.461542 449.887732
-1318.560970 -774.795991 450.878060
-1318.065806 -773.130439 451.868388
-1317.570642 -771.464887 452.858716
-1317.075478 -769.799335 453.849044
-1316.580314 -768.133783 454.839372
-1316.085150 -766.468232 455.829700
-1315.589986 -764.802680 456.820028
-1315.094822 -763.137128 457.810356
-1314.599658 -761.471576 458.800684
-1314.104494 -759.806024 459.791013
-1313.609330 -758.140473 460.781341
-1313.114166 -756.474921 461.771669
-1312.619002 -754.809369 462.761997
-1312.123838 -753.143817 463.752325
-1311.628673 -751.478265 464.742653
-1311.133509 -749.812713 465.732981
-1310.638345 -748.147162 466.723309
-1310.143181 -746.481610 467.713637
-1309.648017 -744.816058 468.703965
-1309.152853 -743.150506 469.694294
-1308.657689 -741.484954 470.684622
-1308.162525 -739.819403 471.674950
-1307.667361 -738.153851 472.665278
-1307.172197 -736.488299 473.655606
-1306.677033 -734.822747 474.645934
-1306.181869 -733.157195 475.636262
-1305.686705 -731.491644 476.626590
-1305.191541 -729.826092 477.616918
-1304.696377 -728.160540 478.607246
-1304.201213 -726.494988 479.597575
-1303.706049 -724.829436 480.587903
-1303.210885 -723.163885 481.578231
-1302.715721 -721.498333 482.568559
-1302.220557 -719.832781 483.558887
-1301.725392 -718.167229 484.549215
-1301.230228 -716.501677 485.539543
-1300.735064 -714.836126 486.529871
-1300.239900 -713.170574 487.520199
-1299.744736 -711.505022 488.510527
-1299.249572 -709.839470 489.500856
-1298.754408 -708.173918 490.491184
-1298.259244 -706.508367 491.481512
-1297.764080 -704.842815 492.471840
-1297.268916 -703.177263 493.462168
-1296.773752 -701.511711 494.452496
-1296.278588 -699.846159 495.442824
-1295.783424 -698.180608 496.433152
-1295.288260 -696.515056 497.423480
-1294.793096 -694.849504 498.413808
-1294.297932 -693.183952 499.404137
-1293.802768 -691.518400 500.394465
-1293.307604 -689.852848 501.384793
-1292.812440 -688.187297 502.375121
-1292.317276 -686.521745 503.365449
-1291.822111 -684.856193 504.355777
-1291.326947 -683.190641 505.346105
-1290.831783 -681.525089 506.336433
-1290.336619 -679.859538 507.326761
-1289.841455 -678.193986 508.317089
-1289.346291 -676.528434 509.307418
-1288.851127 -674.862882 510.297746
-1288.355963 -673.197330 511.288074
-1287.860799 -671.531779 512.278402
-1287.365635 -669.866227 513.268730
-1286.870471 -668.200675 514.259058
-1286.375307 -666.535123 515.249386
-1285.880143 -664.869571 516.239714
-1285.384979 -663.204020 517.230042
-1284.889815 -661.538468 518.220370
-1284.394651 -659.872916 519.210699
-1283.899487 -658.207364 520.201027
-1283.404323 -656.541812 521.191355
-1282.909159 -654.876261 522.181683
-1282.413994 -653.210709 523.172011
-1281.918830 -651.545157 524.162339
-1281.423666 -649.879605 525.152667
-1280.928502 -648.214053 526.142995
-1280.433338 -646.548502 527.133323
-1279.938174 -644.882950 528.123652
-1279.443010 -643.217398 529.113980
-1278.947846 -641.551846 530.104308
-1278.452682 -639.886294 531.094636
-1277.957518 -638.220743 532.084964
-1277.462354 -636.555191 533.075292
-1276.967190 -634.889639 534.065620
-1276.472026 -633.224087 535.055948
-1275.976862 -631.558535 536.046276
-1275.481698 -629.892983 537.036604
-1274.986534 -628.227432 538.026933
-1274.491370 -626.561880 539.017261
-1273.996206 -624.896328 540.007589
-1273.501042 -623.230776 540.997917
-1273.005878 -621.565224 541.988245
-1272.510713 -619.899673 542.978573
-1272.015549 -618.234121 543.968901
-1271.520385 -616.568569 544.959229
-1271.025221 -614.903017 545.949557
-1270.530057 -613.237465 546.939885
-1270.034893 -611.571914 547.930214
-1269.539729 -609.906362 548.920542
-1269.044565 -608.240810 549.910870
-1268.549401 -606.575258 550.901198
-1268.054237 -604.909706 551.891526
-1267.559073 -603.244155 552.881854
-1267.063909 -601.578603 553.872182
-1266.568745 -599.913051 554.862510
-1266.073581 -598.247499 555.852838
-1265.578417 -596.581947 556.843166
-1265.083253 -594.916396 557.833495
-1264.588089 -593.250844 558.823823
-1264.092925 -591.585292 559.814151
-1263.597761 -589.919740 560.804479
-1263.102597 -588.254188 561.794807
-1262.607432 -586.588637 562.785135
-1262.112268 -584.923085 563.775463
-1261.617104 -583.257533 564.765791
-1261.121940 -581.591981 565.756119
-1260.626776 -579.926429 566.746447
-1260.131612 -578.260878 567.736776
-1259.636448 -576.595326 568.727104
-1259.141284 -574.929774 569.717432
-1258.646120 -573.264222 570.707760
-1258.150956 -571.598670 571.698088
-1257.655792 -569.933118 572.688416
-1257.160628 -568.267567 573.678744
-1256.665464 -566.602015 574.669072
-1256.170300 -564.936463 575.659400
-1255.675136 -563.270911 576.649728
-1255.179972 -561.605359 577.640057
-1254.684808 -559.939808 578.630385
-1254.189644 -558.274256 579.620713
-1253.694480 -556.608704 580.611041
-1253.199316 -554.943152 581.601369
-1252.704151 -553.277600 582.591697
-1252.208987 -551.612049 583.582025
-1251.713823 -549.946497 584.572353
-1251.218659 -548.280945 585.562681
-1250.723495 -546.615393 586.553009
-1250.228331 -544.949841 587.543338
-1249.733167 -543.284290 588.533666
-1249.238003 -541.618738 589.523994
-1248.742839 -539.953186 590.514322
-1248.247675 -538.287634 591.504650
-1247.752511 -536.622082 592.494978
-1247.257347 -534.956531 593.485306
-1246.762183 -533.290979 594.475634
-1246.267019 -531.625427 595.465962
-1245.771855 -529.959875 596.456290
-1245.276691 -528.294323 597.446619
-1244.781527 -526.628772 598.436947
-1244.286363 -524.963220 599.427275
-1243.791199 -523.297668 600.417603
-1243.296035 -521.632116 601.407931
-1242.800870 -519.966564 602.398259
-1242.305706 -518.301013 603.388587
-1241.810542 -516.635461 604.378915
-1241.315378 -514.969909 605.369243
-1240.820214 -513.304357 606.359571
-1240.325050 -511.638805 607.349900
-1239.829886 -509.973254 608.340228
-1239.334722 -508.307702 609.330556
-1238.839558 -506.642150 610.320884
-1238.344394 -504.976598 611.311212
-1237.849230 -503.311046 612.301540
-1237.354066 -501.645494 613.291868
-1236.858902 -499.979943 614.282196
-1236.363738 -498.314391 615.272524
-1235.868574 -496.648839 616.262852
-1235.373410 -494.983287 617.253181
-1234.878246 -493.317735 618.243509
-1234.383082 -491.652184 619.233837
-1233.887918 -489.986632 620.224165
-1233.392754 -488.321080 621.214493
-1232.897589 -486.655528 622.204821
-1232.402425 -484.989976 623.195149
-1231.907261 -483.324425 624.185477
-1231.412097 -481.658873 625.175805
-1230.916933 -479.993321 626.166133
-1230.421769 -478.327769 627.156462
-1229.926605 -476.662217 628.146790
-1229.431441 -474.996666 629.137118
-1228.936277 -473.331114 630.127446
-1228.441113 -471.665562 631.117774
-1227.945949 -470.000010 632.108102
-1227.450785 -468.334458 633.098430
-1226.955621 -466.668907 634.088758
-1226.460457 -465.003355 635.079086
-1225.965293 -463.337803 636.069414
-1225.470129 -461.672251 637.059743
-1224.974965 -460.006699 638.050071
-1224.479801 -458.341148 639.040399
-1223.984637 -456.675596 640.030727
-1223.489473 -455.010044 641.021055
-1222.994308 -453.344492 642.011383
-1222.499144 -451.678940 643.001711
-1222.003980 -450.013389 643.992039
-1221.508816 -448.347837 644.982367
-1221.013652 -446.682285 645.972695
-1220.518488 -445.016733 646.963024
-1220.023324 -443.351181 647.953352
-1219.528160 -441.685629 648.943680
-1219.032996 -440.020078 649.934008
-1218.537832 -438.354526 650.924336
-1218.042668 -436.688974 651.914664
-1217.547504 -435.023422 652.904992
-1217.052340 -433.357870 653.895320
-1216.557176 -431.692319 654.885648
-1216.062012 -430.026767 655.875976
-1215.566848 -428.361215 656.866305
-1215.071684 -426.695663 657.856633
-1214.576520 -425.030111 658.846961
-1214.081356 -423.364560 659.837289
-1213.586192 -421.699008 660.827617
-1213.091027 -420.033456 661.817945
-1212.595863 -418.367904 662.808273
-1212.100699 -416.702352 663.798601
-1211.605535 -415.036801 664.788929
-1211.110371 -413.371249 665.779257
-1210.615207 -411.705697 666.769586
-1210.120043 -410.040145 667.759914
-1209.624879 -408.374593 668.750242
-1209.129715 -406.709042 669.740570
-1208.634551 -405.043490 670.730898
-1208.139387 -403.377938 671.721226
-1207.644223 -401.712386 672.711554
-1207.149059 -400.046834 673.701882
-1206.653895 -398.381283 674.692210
-1206.158731 -396.715731 675.682538
-1205.663567 -395.050179 676.672867
-1205.168403 -393.384627 677.663195
-1204.673239 -391.719075 678.653523
-1204.178075 -390.053524 679.643851
-1203.682911 -388.387972 680.634179
-1203.187746 -386.722420 681.624507
-1202.692582 -385.056868 682.614835
-1202.197418 -383.391316 683.605163
-1201.702254 -381.725764 684.595491
-1201.207090 -380.060213 685.585819
-1200.711926 -378.394661 686.576148
-1200.216762 -376.729109 687.566476
-1199.721598 -375.063557 688.556804
-1199.226434 -373.398005 689.547132
-1198.731270 -371.732454 690.537460
-1198.236106 -370.066902 691.527788
-1197.740942 -368.401350 692.518116
-1197.245778 -366.735798 693.508444
-1196.750614 -365.070246 694.498772
-1196.255450 -363.404695 695.489100
-1195.760286 -361.739143 696.479429
-1195.265122 -360.073591 697.469757
-1194.769958 -358.408039 698.460085
-1194.274794 -356.742487 699.450413
-1193.779630 -355.076936 700.440741
-1193.284465 -353.411384 701.431069
-1192.789301 -351.745832 702.421397
-1192.294137 -350.080280 703.411725
-1191.798973 -348.414728 704.402053
-1191.303809 -346.749177 705.392381
-1190.808645 -345.083625 706.382710
-1190.313481 -343.418073 707.373038
-1189.818317 -341.752521 708.363366
-1189.323153 -340.086969 709.353694
-1188.827989 -338.421418 710.344022
-1188.332825 -336.755866 711.334350
-1187.837661 -335.090314 712.324678
-1187.342497 -333.424762 713.315006
-1186.847333 -331.759210 714.305334
-1186.352169 -330.093659 715.295663
-1185.857005 -328.428107 716.285991
-1185.361841 -326.762555 717.276319
-1184.866677 -325.097003 718.266647
-1184.371513 -323.431451 719.256975
-1183.876348 -321.765899 720.247303
-1183.381184 -320.100348 721.237631
-1182.886020 -318.434796 722.227959
-1182.390856 -316.769244 723.218287
-1181.895692 -315.103692 724.208615
-1181.400528 -313.438140 725.198944
-1180.905364 -311.772589 726.189272
-1180.410200 -310.107037 727.179600
-1179.915036 -308.441485 728.169928
-1179.419872 -306.775933 729.160256
-1178.924708 -305.110381 730.150584
-1178.429544 -303.444830 731.140912
-1177.934380 -301.779278 732.131240
-1177.439216 -300.113726 733.121568
-1176.944052 -298.448174 734.111896
-1176.448888 -296.782622 735.102225
-1175.953724 -295.117071 736.092553
-1175.458560 -293.451519 737.082881
-1174.963396 -291.785967 738.073209
-1174.468232 -290.120415 739.063537
-1173.973067 -288.454863 740.053865
-1173.477903 -286.789312 741.044193
-1172.982739 -285.123760 742.034521
-1172.487575 -283.458208 743.024849
-1171.992411 -281.792656 744.015177
-1171.497247 -280.127104 745.005506
-1171.002083 -278.461553 745.995834
-1170.506919 -276.796001 746.986162
-1170.011755 -275.130449 747.976490
-1169.516591 -273.464897 748.966818
-1169.021427 -271.799345 749.957146
-1168.526263 -270.133794 750.947474
-1168.031099 -268.468242 751.937802
-1167.535935 -266.802690 752.928130
-1167.040771 -265.137138 753.918458
-1166.545607 -263.471586 754.908787
-1166.050443 -261.806034 755.899115
-1165.555279 -260.140483 756.889443
-1165.060115 -258.474931 757.879771
-1164.564951 -256.809379 758.870099
-1164.069786 -255.143827 759.860427
-1163.574622 -253.478275 760.850755
-1163.079458 -251.812724 761.841083
-1162.584294 -250.147172 762.831411
-1162.089130 -248.481620 763.821739
-1161.593966 -246.816068 764.812068
-1161.098802 -245.150516 765.802396
-1160.603638 -243.484965 766.792724
-1160.108474 -241.819413 767.783052
-1159.613310 -240.153861 768.773380
-1159.118146 -238.488309 769.763708
-1158.622982 -236.822757 770.754036
-1158.127818 -235.157206 771.744364
-1157.632654 -233.491654 772.734692
-1157.137490 -231.826102 773.725020
-1156.642326 -230.160550 774.715349
-1156.147162 -228.494998 775.705677
-1155.651998 -226.829447 776.696005
-1155.156834 -225.163895 777.686333
-1154.661670 -223.498343 778.676661
-1154.166505 -221.832791 779.666989
-1153.671341 -220.167239 780.657317
-1153.176177 -218.501688 781.647645
-1152.681013 -216.836136 782.637973
-1152.185849 -215.170584 783.628301
-1151.690685 -213.505032 784.618630
-1151.195521 -211.839480 785.608958
-1150.700357 -210.173929 786.599286
-1150.205193 -208.508377 787.589614
-1149.710029 -206.842825 788.579942
-1149.214865 -205.177273 789.570270
-1148.719701 -203.511721 790.560598
-1148.224537 -201.846169 791.550926
-1147.729373 -200.180618 792.541254
-1147.234209 -198.515066 793.531582
-1146.739045 -196.849514 794.521911
-1146.243881 -195.183962 795.512239
-1145.748717 -193.518410 796.502567
-1145.253553 -191.852859 797.492895
-1144.758389 -190.187307 798.483223
-1144.263224 -188.521755 799.473551
-1143.768060 -186.856203 800.463879
-1143.272896 -185.190651 801.454207
-1142.777732 -183.525100 802.444535
-1142.282568 -181.859548 803.434863
-1141.787404 -180.193996 804.425192
-1141.292240 -178.528444 805.415520
-1140.797076 -176.862892 806.405848
-1140.301912 -175.197341 807.396176
-1139.806748 -173.531789 808.386504
-1139.311584 -171.866237 809.376832
-1138.816420 -170.200685 810.367160
-1138.321256 -168.535133 811.357488
-1137.826092 -166.869582 812.347816
-1137.330928 -165.204030 813.338144
-1136.835764 -163.538478 814.328473
-1136.340600 -161.872926 815.318801
-1135.845436 -160.207374 816.309129
-1135.350272 -158.541823 817.299457
-1134.855108 -156.876271 818.289785
-1134.359943 -155.210719 819.280113
-1133.864779 -153.545167 820.270441
-1133.369615 -151.879615 821.260769
-1132.874451 -150.214064 822.251097
-1132.379287 -148.548512 823.241425
-1131.884123 -146.882960 824.231754
-1131.388959 -145.217408 825.222082
-1130.893795 -143.551856 826.212410
-1130.398631 -141.886305 827.202738
-1129.903467 -140.220753 828.193066
-1129.408303 -138.555201 829.183394
-1128.913139 -136.889649 830.173722
-1128.417975 -135.224097 831.164050
-1127.922811 -133.558545 832.154378
-1127.427647 -131.892994 833.144706
-1126.932483 -130.227442 834.135035
-1126.437319 -128.561890 835.125363
-1125.942155 -126.896338 836.115691
-1125.446991 -125.230786 837.106019
-1124.951827 -123.565235 838.096347
-1124.456662 -121.899683 839.086675
-1123.961498 -120.234131 840.077003
-1123.466334 -118.568579 841.067331
-1122.971170 -116.903027 842.057659
-1122.476006 -115.237476 843.047987
-1121.980842 -113.571924 844.038316
-1121.485678 -111.906372 845.028644
-1120.990514 -110.240820 846.018972
-1120.495350 -108.575268 847.009300
-1120.000186 -106.909717 847.999628
-1119.505022 -105.244165 848.989956
-1119.009858 -103.578613 849.980284
-1118.514694 -101.913061 850.970612
-1118.019530 -100.247509 851.960940
-1117.524366 -98.581958 852.951268
-1117.029202 -96.916406 853.941597
-1116.534038 -95.250854 854.931925
-1116.038874 -93.585302 855.922253
-1115.543710 -91.919750 856.912581
-1115.048546 -90.254199 857.902909
-1114.553381 -88.588647 858.893237
-1114.058217 -86.923095 859.883565
-1113.563053 -85.257543 860.873893
-1113.067889 -83.591991 861.864221
-1112.572725 -81.926440 862.854549
-1112.000000 -80.000000 864.000000
-1112.000000 -78.000000 864.000000
-1112.000000 -76.000000 864.000000
-1112.000000 -74.000000 864.000000
-1112.000000 -72.000000 864.000000
-1112.000000 -70.000000 864.000000
-1112.000000 -68.000000 864.000000
-1112.000000 -66.000000 864.000000
-1112.000000 -64.000000 864.000000
-1112.000000 -62.000000 864.000000
-1112.000000 -60.000000 864.000000
-1112.000000 -58.000000 864.000000
-1112.000000 -56.000000 864.000000
-1112.000000 -54.000000 864.000000
-1112.000000 -52.000000 864.000000
-1112.000000 -50.000000 864.000000
-1112.000000 -48.000000 864.000000
-1112.000000 -46.000000 864.000000
-1112.000000 -44.000000 864.000000
-1112.000000 -42.000000 864.000000
-1112.000000 -40.000000 864.000000
-1112.000000 -38.000000 864.000000
-1112.000000 -36.000000 864.000000
-1112.000000 -34.000000 864.000000
-1112.000000 -32.000000 864.000000
-1112.000000 -30.000000 864.000000
-1112.000000 -28.000000 864.000000
-1112.000000 -26.000000 864.000000
-1112.000000 -24.000000 864.000000
-1112.000000 -22.000000 864.000000
-1112.000000 -20.000000 864.000000
-1112.000000 -18.000000 864.000000
-1112.000000 -16.000000 864.000000
-1112.000000 -14.000000 864.000000
-1112.000000 -12.000000 864.000000
-1112.000000 -10.000000 864.000000
-1112.000000 -8.000000 864.000000
-1112.000000 -6.000000 864.000000
-1112.000000 -4.000000 864.000000
-1112.000000 -2.000000 864.000000
-1112.000000 0.000000 864.000000
-1112.000000 2.000000 864.000000
-1112.000000 4.000000 864.000000
-1112.000000 6.000000 864.000000
-1112.000000 8.000000 864.000000
-1112.000000 10.000000 864.000000
-1112.000000 12.000000 864.000000
-1112.000000 14.000000 864.000000
-1112.000000 16.000000 864.000000
-1112.000000 18.000000 864.000000
-1112.000000 20.000000 864.000000
-1112.000000 22.000000 864.000000
-1112.000000 24.000000 864.000000
-1112.000000 26.000000 864.000000
-1112.000000 28.000000 864.000000
-1112.000000 30.000000 864.000000
-1112.000000 32.000000 864.000000
-1112.000000 34.000000 864.000000
-1112.000000 36.000000 864.000000
-1112.000000 38.000000 864.000000
-1112.000000 40.000000 864.000000
-1112.000000 42.000000 864.000000
-1112.000000 44.000000 864.000000
-1112.000000 46.000000 864.000000
-1112.000000 48.000000 864.000000
-1112.000000 50.000000 864.000000
-1112.000000 52.000000 864.000000
-1112.000000 54.000000 864.000000
-1112.000000 56.000000 864.000000
-1112.000000 58.000000 864.000000
-1112.000000 60.000000 864.000000
-1112.000000 62.000000 864.000000
-1112.000000 64.000000 864.000000
-1112.000000 66.000000 864.000000
-1112.000000 68.000000 864.000000
-1112.000000 70.000000 864.000000
-1112.000000 72.000000 864.000000
-1112.000000 74.000000 864.000000
-1112.000000 76.000000 864.000000
-1112.000000 78.000000 864.000000
-1112.000000 80.000000 864.000000
-1112.000000 82.000000 864.000000
-1112.000000 84.000000 864.000000
-1112.000000 86.000000 864.000000
-1112.000000 88.000000 864.000000
-1112.000000 90.000000 864.000000
-1112.000000 92.000000 864.000000
-1112.000000 94.000000 864.000000
-1112.000000 96.000000 864.000000
-1112.000000 98.000000 864.000000
-1112.000000 100.000000 864.000000
-1112.000000 102.000000 864.000000
-1112.000000 104.000000 864.000000
-1112.000000 106.000000 864.000000
-1112.000000 108.000000 864.000000
-1112.000000 110.000000 864.000000
-1112.000000 112.000000 864.000000
-1112.000000 114.000000 864.000000
-1112.000000 116.000000 864.000000
-1112.000000 118.000000 864.000000
-1112.000000 120.000000 864.000000
-1112.000000 122.000000 864.000000
-1112.000000 124.000000 864.000000
-1112.000000 126.000000 864.000000
-1112.000000 128.000000 864.000000
-1112.000000 130.000000 864.000000
-1112.000000 132.000000 864.000000
-1112.000000 134.000000 864.000000
-1112.000000 136.000000 864.000000
-1112.000000 138.000000 864.000000
-1112.000000 140.000000 864.000000
-1112.000000 142.000000 864.000000
-1112.000000 144.000000 864.000000
-1112.000000 146.000000 864.000000
-1112.000000 148.000000 864.000000
-1112.000000 150.000000 864.000000
-1112.000000 152.000000 864.000000
-1112.000000 154.000000 864.000000
-1112.000000 156.000000 864.000000
-1112.000000 158.000000 864.000000
-1112.000000 160.000000 864.000000
-1112.000000 162.000000 864.000000
-1112.000000 164.000000 864.000000
-1112.000000 166.000000 864.000000
-1112.000000 168.000000 864.000000
-1112.000000 170.000000 864.000000
-1112.000000 172.000000 864.000000
-1112.000000 174.000000 864.000000
-1112.000000 176.000000 864.000000
-1112.000000 178.000000 864.000000
-1112.000000 180.000000 864.000000
-1112.000000 182.000000 864.000000
-1112.000000 184.000000 864.000000
-1112.000000 186.000000 864.000000
-1112.000000 188.000000 864.000000
-1112.000000 190.000000 864.000000
-1112.000000 192.000000 864.000000
-1112.000000 194.000000 864.000000
-1112.000000 196.000000 864.000000
-1112.000000 198.000000 864.000000
-1112.000000 200.000000 864.000000
-1112.000000 202.000000 864.000000
-1112.000000 204.000000 864.000000
-1112.000000 206.000000 864.000000
-1112.000000 208.000000 864.000000
-1112.000000 210.000000 864.000000
-1112.000000 212.000000 864.000000
-1112.000000 214.000000 864.000000
-1112.000000 216.000000 864.000000
-1112.000000 218.000000 864.000000
-1112.000000 220.000000 864.000000
-1112.000000 222.000000 864.000000
-1112.000000 224.000000 864.000000
-1112.000000 226.000000 864.000000
-1112.000000 228.000000 864.000000
-1112.000000 230.000000 864.000000
-1112.000000 232.000000 864.000000
-1112.000000 234.000000 864.000000
-1112.000000 236.000000 864.000000
-1112.000000 238.000000 864.000000
-1112.000000 240.000000 864.000000
-1112.000000 242.000000 864.000000
-1112.000000 244.000000 864.000000
-1112.000000 246.000000 864.000000
-1112.000000 248.000000 864.000000
-1112.000000 250.000000 864.000000
-1112.000000 252.000000 864.000000
-1112.000000 254.000000 864.000000
-1112.000000 256.000000 864.000000
-1112.000000 258.000000 864.000000
-1112.000000 260.000000 864.000000
-1112.000000 262.000000 864.000000
-1112.000000 264.000000 864.000000
-1112.000000 266.000000 864.000000
-1112.000000 268.000000 864.000000
-1112.000000 270.000000 864.000000
-1112.000000 272.000000 864.000000
-1112.000000 274.000000 864.000000
-1112.000000 276.000000 864.000000
-1112.000000 278.000000 864.000000
-1112.000000 280.000000 864.000000
-1112.000000 282.000000 864.000000
-1112.000000 284.000000 864.000000
-1112.000000 286.000000 864.000000
-1112.000000 288.000000 864.000000
-1112.000000 290.000000 864.000000
-1112.000000 292.000000 864.000000
-1112.000000 294.000000 864.000000
-1112.000000 296.000000 864.000000
-1112.000000 298.000000 864.000000
-1112.000000 300.000000 864.000000
-1112.000000 302.000000 864.000000
-1112.000000 304.000000 864.000000
-1112.000000 306.000000 864.000000
-1112.000000 308.000000 864.000000
-1112.000000 310.000000 864.000000
-1112.000000 312.000000 864.000000
-1112.000000 314.000000 864.000000
-1112.000000 316.000000 864.000000
-1112.000000 318.000000 864.000000
-1112.000000 320.000000 864.000000
-1112.000000 322.000000 864.000000
-1112.000000 324.000000 864.000000
-1112.000000 326.000000 864.000000
-1112.000000 328.000000 864.000000
-1112.000000 330.000000 864.000000
-1112.000000 332.000000 864.000000
-1112.000000 334.000000 864.000000
-1112.000000 336.000000 864.000000
-1112.000000 338.000000 864.000000
-1112.000000 340.000000 864.000000
-1112.000000 342.000000 864.000000
-1112.000000 344.000000 864.000000
-1112.000000 346.000000 864.000000
-1112.000000 348.000000 864.000000
-1112.000000 350.000000 864.000000
-1112.000000 352.000000 864.000000
-1112.000000 354.000000 864.000000
-1112.000000 356.000000 864.000000
-1112.000000 358.000000 864.000000
-1112.000000 360.000000 864.000000
-1112.000000 362.000000 864.000000
-1112.000000 364.000000 864.000000
-1112.000000 366.000000 864.000000
-1112.000000 368.000000 864.000000
-1112.000000 370.000000 864.000000
-1112.000000 372.000000 864.000000
-1112.000000 374.000000 864.000000
-1112.000000 376.000000 864.000000
-1112.000000 378.000000 864.000000
-1112.000000 380.000000 864.000000
-1112.000000 382.000000 864.000000
-1112.000000 384.000000 864.000000
-1112.000000 386.000000 864.000000
-1112.000000 388.000000 864.000000
-1112.000000 390.000000 864.000000
-1112.000000 392.000000 864.000000
-1112.000000 394.000000 864.000000
-1112.000000 396.000000 864.000000
-1112.000000 398.000000 864.000000
-1112.000000 400.000000 864.000000
-1112.000000 402.000000 864.000000
-1112.000000 404.000000 864.000000
-1112.000000 406.000000 864.000000
-1112.000000 408.000000 864.000000
-1112.000000 410.000000 864.000000
-1112.000000 412.000000 864.000000
-1112.000000 414.000000 864.000000
-1112.000000 416.000000 864.000000
-1112.000000 418.000000 864.000000
-1112.000000 420.000000 864.000000
-1112.000000 422.000000 864.000000
-1112.000000 424.000000 864.000000
-1112.000000 426.000000 864.000000
-1112.000000 428.000000 864.000000
-1112.000000 430.000000 864.000000
-1112.000000 432.000000 864.000000
-1112.000000 434.000000 864.000000
-1112.000000 436.000000 864.000000
-1112.000000 438.000000 864.000000
-1112.000000 440.000000 864.000000
-1112.000000 442.000000 864.000000
-1112.000000 444.000000 864.000000
-1112.000000 446.000000 864.000000
-1112.000000 448.000000 864.000000
-1112.000000 450.000000 864.000000
-1112.000000 452.000000 864.000000
-1112.000000 454.000000 864.000000
-1112.000000 456.000000 864.000000
-1112.000000 458.000000 864.000000
-1112.000000 460.000000 864.000000
-1112.000000 462.000000 864.000000
-1112.000000 464.000000 864.000000
-1112.000000 466.000000 864.000000
-1112.000000 468.000000 864.000000
-1112.000000 470.000000 864.000000
-1112.000000 472.000000 864.000000
-1112.000000 474.000000 864.000000
-1112.000000 476.000000 864.000000
-1112.000000 478.000000 864.000000
-1112.000000 480.000000 864.000000
-1112.000000 482.000000 864.000000
-1112.000000 484.000000 864.000000
-1112.000000 486.000000 864.000000
-1112.000000 488.000000 864.000000
-1112.000000 490.000000 864.000000
-1112.000000 492.000000 864.000000
-1112.000000 494.000000 864.000000
-1112.000000 496.000000 864.000000
-1112.000000 498.000000 864.000000
-1112.000000 500.000000 864.000000
-1112.000000 502.000000 864.000000
-1112.000000 504.000000 864.000000
-1112.000000 506.000000 864.000000
-1112.000000 508.000000 864.000000
-1112.000000 510.000000 864.000000
-1112.000000 512.000000 864.000000
-1112.000000 514.000000 864.000000
-1112.000000 516.000000 864.000000
-1112.000000 518.000000 864.000000
-1112.000000 520.000000 864.000000
-1112.000000 522.000000 864.000000
-1112.000000 524.000000 864.000000
-1112.000000 526.000000 864.000000
-1112.000000 528.000000 864.000000
-1112.000000 530.000000 864.000000
-1112.000000 532.000000 864.000000
-1112.000000 534.000000 864.000000
-1112.000000 536.000000 864.000000
-1112.000000 538.000000 864.000000
-1112.000000 540.000000 864.000000
-1112.000000 542.000000 864.000000
-1112.000000 544.000000 864.000000
-1112.000000 546.000000 864.000000
-1112.000000 548.000000 864.000000
-1112.000000 550.000000 864.000000
-1112.000000 552.000000 864.000000
-1112.000000 554.000000 864.000000
-1112.000000 556.000000 864.000000
-1112.000000 558.000000 864.000000
-1112.000000 560.000000 864.000000
-1112.000000 562.000000 864.000000
-1112.000000 564.000000 864.000000
-1112.000000 566.000000 864.000000
-1112.000000 568.000000 864.000000
-1112.000000 570.000000 864.000000
-1112.000000 572.000000 864.000000
-1112.000000 574.000000 864.000000
-1112.000000 576.000000 864.000000
-1112.000000 578.000000 864.000000
-1112.000000 580.000000 864.000000
-1112.000000 582.000000 864.000000
-1112.000000 584.000000 864.000000
-1112.000000 586.000000 864.000000
-1112.000000 588.000000 864.000000
-1112.000000 590.000000 864.000000
-1112.000000 592.000000 864.000000
-1112.000000 594.000000 864.000000
-1112.000000 596.000000 864.000000
-1112.000000 598.000000 864.000000
-1112.000000 600.000000 864.000000
-1112.000000 602.000000 864.000000
-1112.000000 604.000000 864.000000
-1112.000000 606.000000 864.000000
-1112.000000 608.000000 864.000000
-1112.000000 610.000000 864.000000
-1112.000000 612.000000 864.000000
-1112.000000 614.000000 864.000000
-1112.000000 616.000000 864.000000
-1112.000000 618.000000 864.000000
-1112.000000 620.000000 864.000000
-1112.000000 622.000000 864.000000
-1112.000000 624.000000 864.000000
-1112.000000 626.000000 864.000000
-1112.000000 628.000000 864.000000
-1112.000000 630.000000 864.000000
-1112.000000 632.000000 864.000000
-1112.000000 634.000000 864.000000
-1112.000000 636.000000 864.000000
-1112.000000 638.000000 864.000000
-1112.000000 640.000000 864.000000
-1112.000000 642.000000 864.000000
-1112.000000 644.000000 864.000000
-1112.000000 646.000000 864.000000
-1112.000000 648.000000 864.000000
-1112.000000 650.000000 864.000000
-1112.000000 652.000000 864.000000
-1112.000000 654.000000 864.000000
-1112.000000 656.000000 864.000000
-1112.000000 658.000000 864.000000
-1112.000000 660.000000 864.000000
-1112.000000 662.000000 864.000000
-1112.000000 664.000000 864.000000
-1112.000000 666.000000 864.000000
-1112.000000 668.000000 864.000000
-1112.000000 670.000000 864.000000
-1112.000000 672.000000 864.000000
-1112.000000 674.000000 864.000000
-1112.000000 676.000000 864.000000
-1112.000000 678.000000 864.000000
-1112.000000 680.000000 864.000000
-1112.000000 682.000000 864.000000
-1112.000000 684.000000 864.000000
-1112.000000 688.000000 864.000000
-1112.000000 688.000000 866.000000
-1112.000000 688.000000 868.000000
-1112.000000 688.000000 870.000000
-1112.000000 688.000000 872.000000
-1112.000000 688.000000 874.000000
-1112.000000 688.000000 876.000000
-1112.000000 688.000000 878.000000
-1112.000000 688.000000 880.000000
-1112.000000 688.000000 882.000000
-1112.000000 688.000000 884.000000
-1112.000000 688.000000 886.000000
-1112.000000 688.000000 888.000000
-1112.000000 688.000000 890.000000
-1112.000000 688.000000 892.000000
-1112.000000 688.000000 894.000000
-1112.000000 688.000000 896.000000
-1112.000000 688.000000 898.000000
-1112.000000 688.000000 900.000000
-1112.000000 688.000000 902.000000
-1112.000000 688.000000 904.000000
-1112.000000 688.000000 906.000000
-1112.000000 688.000000 908.000000
-1112.000000 688.000000 910.000000
-1112.000000 688.000000 912.000000
-1112.000000 688.000000 914.000000
-1112.000000 688.000000 916.000000
-1112.000000 688.000000 918.000000
-1112.000000 688.000000 920.000000
-1112.000000 688.000000 922.000000
-1112.000000 688.000000 924.000000
-1112.000000 688.000000 926.000000
-1112.000000 688.000000 928.000000
-1112.000000 688.000000 930.000000
-1112.000000 688.000000 932.000000
-1112.000000 688.000000 934.000000
-1112.000000 688.000000 936.000000
-1112.000000 688.000000 938.000000
-1112.000000 688.000000 940.000000
-1112.000000 688.000000 942.000000
-1112.000000 688.000000 944.000000
-1112.000000 688.000000 946.000000
-1112.000000 688.000000 948.000000
-1112.000000 688.000000 950.000000
-1112.000000 688.000000 952.000000
-1112.000000 688.000000 954.000000
-1112.000000 688.000000 956.000000
-1112.000000 688.000000 958.000000
-1112.000000 688.000000 960.000000
-1112.000000 688.000000 962.000000
-1112.000000 688.000000 964.000000
-1112.000000 688.000000 966.000000
-1112.000000 688.000000 968.000000
-1112.000000 688.000000 970.000000
-1112.000000 688.000000 972.000000
-1112.000000 688.000000 974.000000
-1112.000000 688.000000 976.000000
-1112.000000 688.000000 978.000000
-1112.000000 688.000000 980.000000
-1112.000000 688.000000 982.000000
-1112.000000 688.000000 984.000000
-1112.000000 688.000000 986.000000
-1112.000000 688.000000 988.000000
-1112.000000 688.000000 990.000000
-1112.000000 688.000000 992.000000
-1112.000000 688.000000 994.000000
-1112.000000 688.000000 996.000000
-1112.000000 688.000000 998.000000
-1112.000000 688.000000 1000.000000
-1112.000000 688.000000 1002.000000
-1112.000000 688.000000 1004.000000
-1112.000000 688.000000 1006.000000
-1112.000000 688.000000 1008.000000
-1112.000000 688.000000 1010.000000
-1112.000000 688.000000 1012.000000
-1112.000000 688.000000 1014.000000
-1112.000000 688.000000 1016.000000
-1112.000000 688.000000 1018.000000
-1112.000000 688.000000 1020.000000
-1112.000000 688.000000 1022.000000
-1112.000000 688.000000 1024.000000
-1112.000000 688.000000 1026.000000
-1112.000000 688.000000 1028.000000
-1112.000000 688.000000 1030.000000
-1112.000000 688.000000 1032.000000
-1112.000000 688.000000 1034.000000
-1112.000000 688.000000 1036.000000
-1112.000000 688.000000 1038.000000
-1112.000000 688.000000 1040.000000
-1112.000000 688.000000 1042.000000
-1112.000000 688.000000 1044.000000
-1112.000000 688.000000 1046.000000
-1112.000000 688.000000 1048.000000
-1112.000000 688.000000 1050.000000
-1112.000000 688.000000 1052.000000
-1112.000000 688.000000 1054.000000
-1112.000000 688.000000 1056.000000
-1112.000000 688.000000 1058.000000
-1112.000000 688.000000 1060.000000
-1112.000000 688.000000 1062.000000
-1112.000000 688.000000 1064.000000
-1112.000000 688.000000 1066.000000
-1112.000000 688.000000 1068.000000
-1112.000000 688.000000 1070.000000
-1112.000000 688.000000 1072.000000
-1112.000000 688.000000 1074.000000
-1112.000000 688.000000 1076.000000
-1112.000000 688.000000 1078.000000
-1112.000000 688.000000 1080.000000
-1112.000000 688.000000 1082.000000
-1112.000000 688.000000 1084.000000
-1112.000000 688.000000 1086.000000
-1112.000000 688.000000 1088.000000
-1112.000000 688.000000 1090.000000
-1112.000000 688.000000 1092.000000
-1112.000000 688.000000 1094.000000
-1112.000000 688.000000 1096.000000
-1112.000000 688.000000 1098.000000
-1112.000000 688.000000 1100.000000
-1112.000000 688.000000 1102.000000
-1112.000000 688.000000 1104.000000
-1112.000000 688.000000 1106.000000
-1112.000000 688.000000 1108.000000
-1112.000000 688.000000 1110.000000
-1112.000000 688.000000 1112.000000
-1112.000000 688.000000 1114.000000
-1112.000000 688.000000 1116.000000
-1112.000000 688.000000 1118.000000
-1112.000000 688.000000 1120.000000
-1112.000000 688.000000 1122.000000
-1112.000000 688.000000 1124.000000
-1112.000000 688.000000 1126.000000
-1112.000000 688.000000 1128.000000
-1112.000000 688.000000 1130.000000
-1112.000000 688.000000 1132.000000
-1112.000000 688.000000 1134.000000
-1112.000000 688.000000 1136.000000
-1112.000000 688.000000 1138.000000
-1112.000000 688.000000 1140.000000
-1112.000000 688.000000 1142.000000
