-144.000000 688.000000 1418.000000
-144.000000 688.000000 1420.000000
-144.000000 688.000000 1422.000000
-144.000000 688.000000 1424.000000
-144.000000 688.000000 1426.000000
-144.000000 688.000000 1428.000000
-144.000000 688.000000 1432.000000
-144.000000 686.000244 1432.031246
-144.000000 684.000488 1432.062492
-144.000000 682.000732 1432.093739
-144.000000 680.000976 1432.124985
-144.000000 678.001220 1432.156231
-144.000000 676.001465 1432.187477
-144.000000 674.001709 1432.218723
-144.000000 672.001953 1432.249969
-144.000000 670.002197 1432.281216
-144.000000 668.002441 1432.312462
-144.000000 666.002685 1432.343708
-144.000000 664.002929 1432.374954
-144.000000 662.003173 1432.406200
-144.000000 660.003417 1432.437447
-144.000000 658.003661 1432.468693
-144.000000 656.003906 1432.499939
-144.000000 654.004150 1432.531185
-144.000000 652.004394 1432.562431
-144.000000 650.004638 1432.593678
-144.000000 648.004882 1432.624924
-144.000000 646.005126 1432.656170
-144.000000 644.005370 1432.687416
-144.000000 642.005614 1432.718662
-144.000000 640.005858 1432.749908
-144.000000 638.006102 1432.781155
-144.000000 636.006346 1432.812401
-144.000000 634.006591 1432.843647
-144.000000 632.006835 1432.874893
-144.000000 630.007079 1432.906139
-144.000000 628.007323 1432.937386
-144.000000 626.007567 1432.968632
-144.000000 624.007811 1432.999878
-144.000000 622.008055 1433.031124
-144.000000 620.008299 1433.062370
-144.000000 618.008543 1433.093617
-144.000000 616.008787 1433.124863
-144.000000 614.009032 1433.156109
-144.000000 612.009276 1433.187355
-144.000000 610.009520 1433.218601
-144.000000 608.009764 1433.249847
-144.000000 606.010008 1433.281094
-144.000000 604.010252 1433.312340
-144.000000 602.010496 1433.343586
-144.000000 600.010740 1433.374832
-144.000000 598.010984 1433.406078
-144.000000 596.011228 1433.437325
-144.000000 594.011473 1433.468571
-144.000000 592.011717 1433.499817
-144.000000 590.011961 1433.531063
-144.000000 588.012205 1433.562309
-144.000000 586.012449 1433.593555
-144.000000 584.012693 1433.624802
-144.000000 582.012937 1433.656048
-144.000000 580.013181 1433.687294
-144.000000 578.013425 1433.718540
-144.000000 576.013669 1433.749786
-144.000000 574.013913 1433.781033
-144.000000 572.014158 1433.812279
-144.000000 570.014402 1433.843525
-144.000000 568.014646 1433.874771
-144.000000 566.014890 1433.906017
-144.000000 564.015134 1433.937264
-144.000000 562.015378 1433.968510
-144.000000 560.015622 1433.999756
-144.000000 558.015866 1434.031002
-144.000000 556.016110 1434.062248
-144.000000 554.016354 1434.093494
-144.000000 552.016599 1434.124741
-144.000000 550.016843 1434.155987
-144.000000 548.017087 1434.187233
-144.000000 546.017331 1434.218479
-144.000000 544.017575 1434.249725
-144.000000 542.017819 1434.280972
-144.000000 540.018063 1434.312218
-144.000000 538.018307 1434.343464
-144.000000 536.018551 1434.374710
-144.000000 534.018795 1434.405956
-144.000000 532.019039 1434.437203
-144.000000 530.019284 1434.468449
-144.000000 528.019528 1434.499695
-144.000000 526.019772 1434.530941
-144.000000 524.020016 1434.562187
-144.000000 522.020260 1434.593433
-144.000000 520.020504 1434.624680
-144.000000 518.020748 1434.655926
-144.000000 516.020992 1434.687172
-144.000000 514.021236 1434.718418
-144.000000 512.021480 1434.749664
-144.000000 510.021725 1434.780911
-144.000000 508.021969 1434.812157
-144.000000 506.022213 1434.843403
-144.000000 504.022457 1434.874649
-144.000000 502.022701 1434.905895
-144.000000 500.022945 1434.937141
-144.000000 498.023189 1434.968388
-144.000000 496.023433 1434.999634
-144.000000 494.023677 1435.030880
-144.000000 492.023921 1435.062126
-144.000000 490.024165 1435.093372
-144.000000 488.024410 1435.124619
-144.000000 486.024654 1435.155865
-144.000000 484.024898 1435.187111
-144.000000 482.025142 1435.218357
-144.000000 480.025386 1435.249603
-144.000000 478.025630 1435.280850
-144.000000 476.025874 1435.312096
-144.000000 474.026118 1435.343342
-144.000000 472.026362 1435.374588
-144.000000 470.026606 1435.405834
-144.000000 468.026851 1435.437080
-144.000000 466.027095 1435.468327
-144.000000 464.027339 1435.499573
-144.000000 462.027583 1435.530819
-144.000000 460.027827 1435.562065
-144.000000 458.028071 1435.593311
-144.000000 456.028315 1435.624558
-144.000000 454.028559 1435.655804
-144.000000 452.028803 1435.687050
-144.000000 450.029047 1435.718296
-144.000000 448.029292 1435.749542
-144.000000 446.029536 1435.780789
-144.000000 444.029780 1435.812035
-144.000000 442.030024 1435.843281
-144.000000 440.030268 1435.874527
-144.000000 438.030512 1435.905773
-144.000000 436.030756 1435.937019
-144.000000 434.031000 1435.968266
-144.000000 432.031244 1435.999512
-144.000000 430.031488 1436.030758
-144.000000 428.031732 1436.062004
-144.000000 426.031977 1436.093250
-144.000000 424.032221 1436.124497
-144.000000 422.032465 1436.155743
-144.000000 420.032709 1436.186989
-144.000000 418.032953 1436.218235
-144.000000 416.033197 1436.249481
-144.000000 414.033441 1436.280727
-144.000000 412.033685 1436.311974
-144.000000 410.033929 1436.343220
-144.000000 408.034173 1436.374466
-144.000000 406.034418 1436.405712
-144.000000 404.034662 1436.436958
-144.000000 402.034906 1436.468205
-144.000000 400.035150 1436.499451
-144.000000 398.035394 1436.530697
-144.000000 396.035638 1436.561943
-144.000000 394.035882 1436.593189
-144.000000 392.036126 1436.624436
-144.000000 390.036370 1436.655682
-144.000000 388.036614 1436.686928
-144.000000 386.036858 1436.718174
-144.000000 384.037103 1436.749420
-144.000000 382.037347 1436.780666
-144.000000 380.037591 1436.811913
-144.000000 378.037835 1436.843159
-144.000000 376.038079 1436.874405
-144.000000 374.038323 1436.905651
-144.000000 372.038567 1436.936897
-144.000000 370.038811 1436.968144
-144.000000 368.039055 1436.999390
-144.000000 366.039299 1437.030636
-144.000000 364.039544 1437.061882
-144.000000 362.039788 1437.093128
-144.000000 360.040032 1437.124375
-144.000000 358.040276 1437.155621
-144.000000 356.040520 1437.186867
-144.000000 354.040764 1437.218113
-144.000000 352.041008 1437.249359
-144.000000 350.041252 1437.280605
-144.000000 348.041496 1437.311852
-144.000000 346.041740 1437.343098
-144.000000 344.041985 1437.374344
-144.000000 342.042229 1437.405590
-144.000000 340.042473 1437.436836
-144.000000 338.042717 1437.468083
-144.000000 336.042961 1437.499329
-144.000000 334.043205 1437.530575
-144.000000 332.043449 1437.561821
-144.000000 330.043693 1437.593067
-144.000000 328.043937 1437.624313
-144.000000 326.044181 1437.655560
-144.000000 324.044425 1437.686806
-144.000000 322.044670 1437.718052
-144.000000 320.044914 1437.749298
-144.000000 318.045158 1437.780544
-144.000000 316.045402 1437.811791
-144.000000 314.045646 1437.843037
-144.000000 312.045890 1437.874283
-144.000000 310.046134 1437.905529
-144.000000 308.046378 1437.936775
-144.000000 306.046622 1437.968022
-144.000000 304.046866 1437.999268
-144.000000 302.047111 1438.030514
-144.000000 300.047355 1438.061760
-144.000000 298.047599 1438.093006
-144.000000 296.047843 1438.124252
-144.000000 294.048087 1438.155499
-144.000000 292.048331 1438.186745
-144.000000 290.048575 1438.217991
-144.000000 288.048819 1438.249237
-144.000000 286.049063 1438.280483
-144.000000 284.049307 1438.311730
-144.000000 282.049551 1438.342976
-144.000000 280.049796 1438.374222
-144.000000 278.050040 1438.405468
-144.000000 276.050284 1438.436714
-144.000000 274.050528 1438.467961
-144.000000 272.050772 1438.499207
-144.000000 270.051016 1438.530453
-144.000000 268.051260 1438.561699
-144.000000 266.051504 1438.592945
-144.000000 264.051748 1438.624191
-144.000000 262.051992 1438.655438
-144.000000 260.052237 1438.686684
-144.000000 258.052481 1438.717930
-144.000000 256.052725 1438.749176
-144.000000 254.052969 1438.780422
-144.000000 252.053213 1438.811669
-144.000000 250.053457 1438.842915
-144.000000 248.053701 1438.874161
-144.000000 246.053945 1438.905407
-144.000000 244.054189 1438.936653
-144.000000 242.054433 1438.967899
-144.000000 240.054677 1438.999146
-144.000000 238.054922 1439.030392
-144.000000 236.055166 1439.061638
-144.000000 234.055410 1439.092884
-144.000000 232.055654 1439.124130
-144.000000 230.055898 1439.155377
-144.000000 228.056142 1439.186623
-144.000000 226.056386 1439.217869
-144.000000 224.056630 1439.249115
-144.000000 222.056874 1439.280361
-144.000000 220.057118 1439.311608
-144.000000 218.057363 1439.342854
-144.000000 216.057607 1439.374100
-144.000000 214.057851 1439.405346
-144.000000 212.058095 1439.436592
-144.000000 210.058339 1439.467838
-144.000000 208.058583 1439.499085
-144.000000 206.058827 1439.530331
-144.000000 204.059071 1439.561577
-144.000000 202.059315 1439.592823
-144.000000 200.059559 1439.624069
-144.000000 198.059804 1439.655316
-144.000000 196.060048 1439.686562
-144.000000 194.060292 1439.717808
-144.000000 192.060536 1439.749054
-144.000000 190.060780 1439.780300
-144.000000 188.061024 1439.811547
-144.000000 186.061268 1439.842793
-144.000000 184.061512 1439.874039
-144.000000 182.061756 1439.905285
-144.000000 180.062000 1439.936531
-144.000000 178.062244 1439.967777
-144.000000 176.062489 1439.999024
-144.000000 174.062733 1440.030270
-144.000000 172.062977 1440.061516
-144.000000 170.063221 1440.092762
-144.000000 168.063465 1440.124008
-144.000000 166.063709 1440.155255
-144.000000 164.063953 1440.186501
-144.000000 162.064197 1440.217747
-144.000000 160.064441 1440.248993
-144.000000 158.064685 1440.280239
-144.000000 156.064930 1440.311485
-144.000000 154.065174 1440.342732
-144.000000 152.065418 1440.373978
-144.000000 150.065662 1440.405224
-144.000000 148.065906 1440.436470
-144.000000 146.066150 1440.467716
-144.000000 144.066394 1440.498963
-144.000000 142.066638 1440.530209
-144.000000 140.066882 1440.561455
-144.000000 138.067126 1440.592701
-144.000000 136.067370 1440.623947
-144.000000 134.067615 1440.655194
-144.000000 132.067859 1440.686440
-144.000000 130.068103 1440.717686
-144.000000 128.068347 1440.748932
-144.000000 126.068591 1440.780178
-144.000000 124.068835 1440.811424
-144.000000 122.069079 1440.842671
-144.000000 120.069323 1440.873917
-144.000000 118.069567 1440.905163
-144.000000 116.069811 1440.936409
-144.000000 114.070056 1440.967655
-144.000000 112.070300 1440.998902
-144.000000 110.070544 1441.030148
-144.000000 108.070788 1441.061394
-144.000000 106.071032 1441.092640
-144.000000 104.071276 1441.123886
-144.000000 102.071520 1441.155132
-144.000000 100.071764 1441.186379
-144.000000 98.072008 1441.217625
-144.000000 96.072252 1441.248871
-144.000000 94.072496 1441.280117
-144.000000 92.072741 1441.311363
-144.000000 90.072985 1441.342610
-144.000000 88.073229 1441.373856
-144.000000 86.073473 1441.405102
-144.000000 84.073717 1441.436348
-144.000000 82.073961 1441.467594
-144.000000 80.074205 1441.498841
-144.000000 78.074449 1441.530087
-144.000000 76.074693 1441.561333
-144.000000 74.074937 1441.592579
-144.000000 72.075182 1441.623825
-144.000000 70.075426 1441.655071
-144.000000 68.075670 1441.686318
-144.000000 66.075914 1441.717564
-144.000000 64.076158 1441.748810
-144.000000 62.076402 1441.780056
-144.000000 60.076646 1441.811302
-144.000000 58.076890 1441.842549
-144.000000 56.077134 1441.873795
-144.000000 54.077378 1441.905041
-144.000000 52.077623 1441.936287
-144.000000 50.077867 1441.967533
-144.000000 48.078111 1441.998780
-144.000000 46.078355 1442.030026
-144.000000 44.078599 1442.061272
-144.000000 42.078843 1442.092518
-144.000000 40.079087 1442.123764
-144.000000 38.079331 1442.155010
-144.000000 36.079575 1442.186257
-144.000000 34.079819 1442.217503
-144.000000 32.080063 1442.248749
-144.000000 30.080308 1442.279995
-144.000000 28.080552 1442.311241
-144.000000 26.080796 1442.342488
-144.000000 24.081040 1442.373734
-144.000000 22.081284 1442.404980
-144.000000 20.081528 1442.436226
-144.000000 18.081772 1442.467472
-144.000000 16.082016 1442.498718
-144.000000 14.082260 1442.529965
-144.000000 12.082504 1442.561211
-144.000000 10.082749 1442.592457
-144.000000 8.082993 1442.623703
-144.000000 6.083237 1442.654949
-144.000000 4.083481 1442.686196
-144.000000 2.083725 1442.717442
-144.000000 0.083969 1442.748688
-144.000000 -1.915787 1442.779934
-144.000000 -3.915543 1442.811180
-144.000000 -5.915299 1442.842427
-144.000000 -7.915055 1442.873673
-144.000000 -9.914811 1442.904919
-144.000000 -11.914566 1442.936165
-144.000000 -13.914322 1442.967411
-144.000000 -15.914078 1442.998657
-144.000000 -17.913834 1443.029904
-144.000000 -19.913590 1443.061150
-144.000000 -21.913346 1443.092396
-144.000000 -23.913102 1443.123642
-144.000000 -25.912858 1443.154888
-144.000000 -27.912614 1443.186135
-144.000000 -29.912370 1443.217381
-144.000000 -31.912125 1443.248627
-144.000000 -33.911881 1443.279873
-144.000000 -35.911637 1443.311119
-144.000000 -37.911393 1443.342366
-144.000000 -39.911149 1443.373612
-144.000000 -41.910905 1443.404858
-144.000000 -43.910661 1443.436104
-144.000000 -45.910417 1443.467350
-144.000000 -47.910173 1443.498596
-144.000000 -49.909929 1443.529843
-144.000000 -51.909685 1443.561089
-144.000000 -53.909440 1443.592335
-144.000000 -55.909196 1443.623581
-144.000000 -57.908952 1443.654827
-144.000000 -59.908708 1443.686074
-144.000000 -61.908464 1443.717320
-144.000000 -63.908220 1443.748566
-144.000000 -65.907976 1443.779812
-144.000000 -67.907732 1443.811058
-144.000000 -69.907488 1443.842304
-144.000000 -71.907244 1443.873551
-144.000000 -73.906999 1443.904797
-144.000000 -75.906755 1443.936043
-144.000000 -77.906511 1443.967289
-144.000000 -80.000000 1444.000000
-144.000000 -81.999514 1444.044107
-144.000000 -83.999027 1444.088214
-144.000000 -85.998541 1444.132321
-144.000000 -87.998054 1444.176428
-144.000000 -89.997568 1444.220535
-144.000000 -91.997082 1444.264642
-144.000000 -93.996595 1444.308748
-144.000000 -95.996109 1444.352855
-144.000000 -97.995622 1444.396962
-144.000000 -99.995136 1444.441069
-144.000000 -101.994649 1444.485176
-144.000000 -103.994163 1444.529283
-144.000000 -105.993677 1444.573390
-144.000000 -107.993190 1444.617497
-144.000000 -109.992704 1444.661604
-144.000000 -111.992217 1444.705711
-144.000000 -113.991731 1444.749818
-144.000000 -115.991245 1444.793925
-144.000000 -117.990758 1444.838031
-144.000000 -119.990272 1444.882138
-144.000000 -121.989785 1444.926245
-144.000000 -123.989299 1444.970352
-144.000000 -125.988812 1445.014459
-144.000000 -127.988326 1445.058566
-144.000000 -129.987840 1445.102673
-144.000000 -131.987353 1445.146780
-144.000000 -133.986867 1445.190887
-144.000000 -135.986380 1445.234994
-144.000000 -137.985894 1445.279101
-144.000000 -139.985408 1445.323208
-144.000000 -141.984921 1445.367314
-144.000000 -143.984435 1445.411421
-144.000000 -145.983948 1445.455528
-144.000000 -147.983462 1445.499635
-144.000000 -149.982976 1445.543742
-144.000000 -151.982489 1445.587849
-144.000000 -153.982003 1445.631956
-144.000000 -155.981516 1445.676063
-144.000000 -157.981030 1445.720170
-144.000000 -159.980543 1445.764277
-144.000000 -161.980057 1445.808384
-144.000000 -163.979571 1445.852491
-144.000000 -165.979084 1445.896597
-144.000000 -167.978598 1445.940704
-144.000000 -169.978111 1445.984811
-144.000000 -171.977625 1446.028918
-144.000000 -173.977139 1446.073025
-144.000000 -175.976652 1446.117132
-144.000000 -177.976166 1446.161239
-144.000000 -179.975679 1446.205346
-144.000000 -181.975193 1446.249453
-144.000000 -183.974706 1446.293560
-144.000000 -185.974220 1446.337667
-144.000000 -187.973734 1446.381774
-144.000000 -189.973247 1446.425880
-144.000000 -191.972761 1446.469987
-144.000000 -193.972274 1446.514094
-144.000000 -195.971788 1446.558201
-144.000000 -197.971302 1446.602308
-144.000000 -199.970815 1446.646415
-144.000000 -201.970329 1446.690522
-144.000000 -203.969842 1446.734629
-144.000000 -205.969356 1446.778736
-144.000000 -207.968869 1446.822843
-144.000000 -209.968383 1446.866950
-144.000000 -211.967897 1446.911057
-144.000000 -213.967410 1446.955163
-144.000000 -215.966924 1446.999270
-144.000000 -217.966437 1447.043377
-144.000000 -219.965951 1447.087484
-144.000000 -221.965465 1447.131591
-144.000000 -223.964978 1447.175698
-144.000000 -225.964492 1447.219805
-144.000000 -227.964005 1447.263912
-144.000000 -229.963519 1447.308019
-144.000000 -231.963033 1447.352126
-144.000000 -233.962546 1447.396233
-144.000000 -235.962060 1447.440340
-144.000000 -237.961573 1447.484446
-144.000000 -239.961087 1447.528553
-144.000000 -241.960600 1447.572660
-144.000000 -243.960114 1447.616767
-144.000000 -245.959628 1447.660874
-144.000000 -247.959141 1447.704981
-144.000000 -249.958655 1447.749088
-144.000000 -251.958168 1447.793195
-144.000000 -253.957682 1447.837302
-144.000000 -255.957196 1447.881409
-144.000000 -257.956709 1447.925516
-144.000000 -259.956223 1447.969623
-144.000000 -261.955736 1448.013729
-144.000000 -263.955250 1448.057836
-144.000000 -265.954763 1448.101943
-144.000000 -267.954277 1448.146050
-144.000000 -269.953791 1448.190157
-144.000000 -271.953304 1448.234264
-144.000000 -273.952818 1448.278371
-144.000000 -275.952331 1448.322478
-144.000000 -277.951845 1448.366585
-144.000000 -279.951359 1448.410692
-144.000000 -281.950872 1448.454799
-144.000000 -283.950386 1448.498906
-144.000000 -285.949899 1448.543012
-144.000000 -287.949413 1448.587119
-144.000000 -289.948927 1448.631226
-144.000000 -291.948440 1448.675333
-144.000000 -293.947954 1448.719440
-144.000000 -295.947467 1448.763547
-144.000000 -297.946981 1448.807654
-144.000000 -299.946494 1448.851761
-144.000000 -301.946008 1448.895868
-144.000000 -303.945522 1448.939975
-144.000000 -305.945035 1448.984082
-144.000000 -307.944549 1449.028189
-144.000000 -309.944062 1449.072295
-144.000000 -311.943576 1449.116402
-144.000000 -313.943090 1449.160509
-144.000000 -315.942603 1449.204616
-144.000000 -317.942117 1449.248723
-144.000000 -319.941630 1449.292830
-144.000000 -321.941144 1449.336937
-144.000000 -323.940657 1449.381044
-144.000000 -325.940171 1449.425151
-144.000000 -327.939685 1449.469258
-144.000000 -329.939198 1449.513365
-144.000000 -331.938712 1449.557472
-144.000000 -333.938225 1449.601579
-144.000000 -335.937739 1449.645685
-144.000000 -337.937253 1449.689792
-144.000000 -339.936766 1449.733899
-144.000000 -341.936280 1449.778006
-144.000000 -343.935793 1449.822113
-144.000000 -345.935307 1449.866220
-144.000000 -347.934820 1449.910327
-144.000000 -349.934334 1449.954434
-144.000000 -351.933848 1449.998541
-144.000000 -353.933361 1450.042648
-144.000000 -355.932875 1450.086755
-144.000000 -357.932388 1450.130862
-144.000000 -359.931902 1450.174968
-144.000000 -361.931416 1450.219075
-144.000000 -363.930929 1450.263182
-144.000000 -365.930443 1450.307289
-144.000000 -367.929956 1450.351396
-144.000000 -369.929470 1450.395503
-144.000000 -371.928984 1450.439610
-144.000000 -373.928497 1450.483717
-144.000000 -375.928011 1450.527824
-144.000000 -377.927524 1450.571931
-144.000000 -379.927038 1450.616038
-144.000000 -381.926551 1450.660145
-144.000000 -383.926065 1450.704251
-144.000000 -385.925579 1450.748358
-144.000000 -387.925092 1450.792465
-144.000000 -389.924606 1450.836572
-144.000000 -391.924119 1450.880679
-144.000000 -393.923633 1450.924786
-144.000000 -395.923147 1450.968893
-144.000000 -397.922660 1451.013000
-144.000000 -399.922174 1451.057107
-144.000000 -401.921687 1451.101214
-144.000000 -403.921201 1451.145321
-144.000000 -405.920714 1451.189428
-144.000000 -407.920228 1451.233534
-144.000000 -409.919742 1451.277641
-144.000000 -411.919255 1451.321748
-144.000000 -413.918769 1451.365855
-144.000000 -415.918282 1451.409962
-144.000000 -417.917796 1451.454069
-144.000000 -419.917310 1451.498176
-144.000000 -421.916823 1451.542283
-144.000000 -423.916337 1451.586390
-144.000000 -425.915850 1451.630497
-144.000000 -427.915364 1451.674604
-144.000000 -429.914878 1451.718711
-144.000000 -431.914391 1451.762817
-144.000000 -433.913905 1451.806924
-144.000000 -435.913418 1451.851031
-144.000000 -437.912932 1451.895138
-144.000000 -439.912445 1451.939245
-144.000000 -441.911959 1451.983352
-144.000000 -443.911473 1452.027459
-144.000000 -445.910986 1452.071566
-144.000000 -447.910500 1452.115673
-144.000000 -449.910013 1452.159780
-144.000000 -451.909527 1452.203887
-144.000000 -453.909041 1452.247994
-144.000000 -455.908554 1452.292100
-144.000000 -457.908068 1452.336207
-144.000000 -459.907581 1452.380314
-144.000000 -461.907095 1452.424421
-144.000000 -463.906608 1452.468528
-144.000000 -465.906122 1452.512635
-144.000000 -467.905636 1452.556742
-144.000000 -469.905149 1452.600849
-144.000000 -471.904663 1452.644956
-144.000000 -473.904176 1452.689063
-144.000000 -475.903690 1452.733170
-144.000000 -477.903204 1452.777277
-144.000000 -479.902717 1452.821383
-144.000000 -481.902231 1452.865490
-144.000000 -483.901744 1452.909597
-144.000000 -485.901258 1452.953704
-144.000000 -487.900772 1452.997811
-144.000000 -489.900285 1453.041918
-144.000000 -491.899799 1453.086025
-144.000000 -493.899312 1453.130132
-144.000000 -495.898826 1453.174239
-144.000000 -497.898339 1453.218346
-144.000000 -499.897853 1453.262453
-144.000000 -501.897367 1453.306560
-144.000000 -503.896880 1453.350666
-144.000000 -505.896394 1453.394773
-144.000000 -507.895907 1453.438880
-144.000000 -509.895421 1453.482987
-144.000000 -511.894935 1453.527094
-144.000000 -513.894448 1453.571201
-144.000000 -515.893962 1453.615308
-144.000000 -517.893475 1453.659415
-144.000000 -519.892989 1453.703522
-144.000000 -521.892502 1453.747629
-144.000000 -523.892016 1453.791736
-144.000000 -525.891530 1453.835843
-144.000000 -527.891043 1453.879949
-144.000000 -529.890557 1453.924056
-144.000000 -531.890070 1453.968163
-144.000000 -533.889584 1454.012270
-144.000000 -535.889098 1454.056377
-144.000000 -537.888611 1454.100484
-144.000000 -539.888125 1454.144591
-144.000000 -541.887638 1454.188698
-144.000000 -543.887152 1454.232805
-144.000000 -545.886665 1454.276912
-144.000000 -547.886179 1454.321019
-144.000000 -549.885693 1454.365126
-144.000000 -551.885206 1454.409232
-144.000000 -553.884720 1454.453339
-144.000000 -555.884233 1454.497446
-144.000000 -557.883747 1454.541553
-144.000000 -559.883261 1454.585660
-144.000000 -561.882774 1454.629767
-144.000000 -563.882288 1454.673874
-144.000000 -565.881801 1454.717981
-144.000000 -567.881315 1454.762088
-144.000000 -569.880829 1454.806195
-144.000000 -571.880342 1454.850302
-144.000000 -573.879856 1454.894409
-144.000000 -575.879369 1454.938515
-144.000000 -577.878883 1454.982622
-144.000000 -579.878396 1455.026729
-144.000000 -581.877910 1455.070836
-144.000000 -583.877424 1455.114943
-144.000000 -585.876937 1455.159050
-144.000000 -587.876451 1455.203157
-144.000000 -589.875964 1455.247264
-144.000000 -591.875478 1455.291371
-144.000000 -593.874992 1455.335478
-144.000000 -595.874505 1455.379585
-144.000000 -597.874019 1455.423692
-144.000000 -599.873532 1455.467799
-144.000000 -601.873046 1455.511905
-144.000000 -603.872559 1455.556012
-144.000000 -605.872073 1455.600119
-144.000000 -607.871587 1455.644226
-144.000000 -609.871100 1455.688333
-144.000000 -611.870614 1455.732440
-144.000000 -613.870127 1455.776547
-144.000000 -615.869641 1455.820654
-144.000000 -617.869155 1455.864761
-144.000000 -619.868668 1455.908868
-144.000000 -621.868182 1455.952975
-144.000000 -623.867695 1455.997082
-144.000000 -625.867209 1456.041188
-144.000000 -627.866723 1456.085295
-144.000000 -629.866236 1456.129402
-144.000000 -631.865750 1456.173509
-144.000000 -633.865263 1456.217616
-144.000000 -635.864777 1456.261723
-144.000000 -637.864290 1456.305830
-144.000000 -639.863804 1456.349937
-144.000000 -641.863318 1456.394044
-144.000000 -643.862831 1456.438151
-144.000000 -645.862345 1456.482258
-144.000000 -647.861858 1456.526365
-144.000000 -649.861372 1456.570471
-144.000000 -651.860886 1456.614578
-144.000000 -653.860399 1456.658685
-144.000000 -655.859913 1456.702792
-144.000000 -657.859426 1456.746899
-144.000000 -659.858940 1456.791006
-144.000000 -661.858453 1456.835113
-144.000000 -663.857967 1456.879220
-144.000000 -665.857481 1456.923327
-144.000000 -667.856994 1456.967434
-144.000000 -669.856508 1457.011541
-144.000000 -671.856021 1457.055648
-144.000000 -673.855535 1457.099754
-144.000000 -675.855049 1457.143861
-144.000000 -677.854562 1457.187968
-144.000000 -679.854076 1457.232075
-144.000000 -681.853589 1457.276182
-144.000000 -683.853103 1457.320289
-144.000000 -685.852617 1457.364396
-144.000000 -687.852130 1457.408503
-144.000000 -689.851644 1457.452610
-144.000000 -691.851157 1457.496717
-144.000000 -693.850671 1457.540824
-144.000000 -695.850184 1457.584931
-144.000000 -697.849698 1457.629037
-144.000000 -699.849212 1457.673144
-144.000000 -701.848725 1457.717251
-144.000000 -703.848239 1457.761358
-144.000000 -705.847752 1457.805465
-144.000000 -707.847266 1457.849572
-144.000000 -709.846780 1457.893679
-144.000000 -711.846293 1457.937786
-144.000000 -713.845807 1457.981893
-144.000000 -715.845320 1458.026000
-144.000000 -717.844834 1458.070107
-144.000000 -719.844347 1458.114214
-144.000000 -721.843861 1458.158320
-144.000000 -723.843375 1458.202427
-144.000000 -725.842888 1458.246534
-144.000000 -727.842402 1458.290641
-144.000000 -729.841915 1458.334748
-144.000000 -731.841429 1458.378855
-144.000000 -733.840943 1458.422962
-144.000000 -735.840456 1458.467069
-144.000000 -737.839970 1458.511176
-144.000000 -739.839483 1458.555283
-144.000000 -741.838997 1458.599390
-144.000000 -743.838510 1458.643497
-144.000000 -745.838024 1458.687603
-144.000000 -747.837538 1458.731710
-144.000000 -749.837051 1458.775817
-144.000000 -751.836565 1458.819924
-144.000000 -753.836078 1458.864031
-144.000000 -755.835592 1458.908138
-144.000000 -757.835106 1458.952245
-144.000000 -759.834619 1458.996352
-144.000000 -761.834133 1459.040459
-144.000000 -763.833646 1459.084566
-144.000000 -765.833160 1459.128673
-144.000000 -767.832674 1459.172780
-144.000000 -769.832187 1459.216886
-144.000000 -771.831701 1459.260993
-144.000000 -773.831214 1459.305100
-144.000000 -775.830728 1459.349207
-144.000000 -777.830241 1459.393314
-144.000000 -779.829755 1459.437421
-144.000000 -781.829269 1459.481528
-144.000000 -783.828782 1459.525635
-144.000000 -785.828296 1459.569742
-144.000000 -787.827809 1459.613849
-144.000000 -789.827323 1459.657956
-144.000000 -791.826837 1459.702063
-144.000000 -793.826350 1459.746169
-144.000000 -795.825864 1459.790276
-144.000000 -797.825377 1459.834383
-144.000000 -799.824891 1459.878490
-144.000000 -801.824404 1459.922597
-144.000000 -803.823918 1459.966704
-144.000000 -805.823432 1460.010811
-144.000000 -807.822945 1460.054918
-144.000000 -809.822459 1460.099025
-144.000000 -811.821972 1460.143132
-144.000000 -813.821486 1460.187239
-144.000000 -815.821000 1460.231346
-144.000000 -817.820513 1460.275452
-144.000000 -819.820027 1460.319559
-144.000000 -821.819540 1460.363666
-144.000000 -823.819054 1460.407773
-144.000000 -825.818568 1460.451880
-144.000000 -827.818081 1460.495987
-144.000000 -829.817595 1460.540094
-144.000000 -831.817108 1460.584201
-144.000000 -833.816622 1460.628308
-144.000000 -835.816135 1460.672415
-144.000000 -837.815649 1460.716522
-144.000000 -839.815163 1460.760629
-144.000000 -841.814676 1460.804736
-144.000000 -843.814190 1460.848842
-144.000000 -845.813703 1460.892949
-144.000000 -847.813217 1460.937056
-144.000000 -849.812731 1460.981163
-144.000000 -851.812244 1461.025270
-144.000000 -853.811758 1461.069377
-144.000000 -855.811271 1461.113484
-144.000000 -857.810785 1461.157591
-144.000000 -859.810298 1461.201698
-144.000000 -861.809812 1461.245805
-144.000000 -863.809326 1461.289912
-144.000000 -865.808839 1461.334019
-144.000000 -867.808353 1461.378125
-144.000000 -869.807866 1461.422232
-144.000000 -871.807380 1461.466339
-144.000000 -873.806894 1461.510446
-144.000000 -875.806407 1461.554553
-144.000000 -877.805921 1461.598660
-144.000000 -879.805434 1461.642767
-144.000000 -881.804948 1461.686874
-144.000000 -883.804461 1461.730981
-144.000000 -885.803975 1461.775088
-144.000000 -887.803489 1461.819195
-144.000000 -889.803002 1461.863302
-144.000000 -891.802516 1461.907408
-144.000000 -893.802029 1461.951515
-144.000000 -895.801543 1461.995622
-144.000000 -897.801057 1462.039729
-144.000000 -899.800570 1462.083836
-144.000000 -901.800084 1462.127943
-144.000000 -903.799597 1462.172050
-144.000000 -905.799111 1462.216157
-144.000000 -907.798625 1462.260264
-144.000000 -909.798138 1462.304371
-144.000000 -911.797652 1462.348478
-144.000000 -913.797165 1462.392585
-144.000000 -915.796679 1462.436691
-144.000000 -917.796192 1462.480798
-144.000000 -919.795706 1462.524905
-144.000000 -921.795220 1462.569012
-144.000000 -923.794733 1462.613119
-144.000000 -925.794247 1462.657226
-144.000000 -927.793760 1462.701333
-144.000000 -929.793274 1462.745440
-144.000000 -931.792788 1462.789547
-144.000000 -933.792301 1462.833654
-144.000000 -935.791815 1462.877761
-144.000000 -937.791328 1462.921868
-144.000000 -939.790842 1462.965974
-144.000000 -941.790355 1463.010081
-144.000000 -943.789869 1463.054188
-144.000000 -945.789383 1463.098295
-144.000000 -947.788896 1463.142402
-144.000000 -949.788410 1463.186509
-144.000000 -951.787923 1463.230616
-144.000000 -953.787437 1463.274723
-144.000000 -955.786951 1463.318830
-144.000000 -957.786464 1463.362937
-144.000000 -959.785978 1463.407044
-144.000000 -961.785491 1463.451151
-144.000000 -963.785005 1463.495257
-144.000000 -965.784519 1463.539364
-144.000000 -967.784032 1463.583471
-144.000000 -969.783546 1463.627578
-144.000000 -971.783059 1463.671685
-144.000000 -973.782573 1463.715792
-144.000000 -975.782086 1463.759899
-144.000000 -977.781600 1463.804006
-144.000000 -979.781114 1463.848113
-144.000000 -981.780627 1463.892220
-144.000000 -983.780141 1463.936327
-144.000000 -985.779654 1463.980434
-144.000000 -987.779168 1464.024540
-144.000000 -989.778682 1464.068647
-144.000000 -991.778195 1464.112754
-144.000000 -993.777709 1464.156861
-144.000000 -995.777222 1464.200968
-144.000000 -997.776736 1464.245075
-144.000000 -999.776249 1464.289182
-144.000000 -1001.775763 1464.333289
-144.000000 -1003.775277 1464.377396
-144.000000 -1005.774790 1464.421503
-144.000000 -1007.774304 1464.465610
-144.000000 -1009.773817 1464.509717
-144.000000 -1011.773331 1464.553823
-144.000000 -1013.772845 1464.597930
-144.000000 -1015.772358 1464.642037
-144.000000 -1017.771872 1464.686144
-144.000000 -1019.771385 1464.730251
-144.000000 -1021.770899 1464.774358
-144.000000 -1023.770413 1464.818465
-144.000000 -1025.769926 1464.862572
-144.000000 -1027.769440 1464.906679
-144.000000 -1029.768953 1464.950786
-144.000000 -1031.768467 1464.994893
-144.000000 -1033.767980 1465.039000
-144.000000 -1035.767494 1465.083106
-144.000000 -1037.767008 1465.127213
-144.000000 -1039.766521 1465.171320
-144.000000 -1041.766035 1465.215427
-144.000000 -1043.765548 1465.259534
-144.000000 -1045.765062 1465.303641
-144.000000 -1047.764576 1465.347748
-144.000000 -1049.764089 1465.391855
-144.000000 -1051.763603 1465.435962
-144.000000 -1053.763116 1465.480069
-144.000000 -1055.762630 1465.524176
-144.000000 -1057.762143 1465.568283
-144.000000 -1059.761657 1465.612389
-144.000000 -1061.761171 1465.656496
-144.000000 -1063.760684 1465.700603
-144.000000 -1065.760198 1465.744710
-144.000000 -1067.759711 1465.788817
-144.000000 -1069.759225 1465.832924
-144.000000 -1071.758739 1465.877031
-144.000000 -1073.758252 1465.921138
-144.000000 -1075.757766 1465.965245
-144.000000 -1077.757279 1466.009352
-144.000000 -1079.756793 1466.053459
-144.000000 -1081.756306 1466.097566
-144.000000 -1083.755820 1466.141673
-144.000000 -1085.755334 1466.185779
-144.000000 -1087.754847 1466.229886
-144.000000 -1089.754361 1466.273993
-144.000000 -1091.753874 1466.318100
-144.000000 -1093.753388 1466.362207
-144.000000 -1095.752902 1466.406314
-144.000000 -1097.752415 1466.450421
-144.000000 -1099.751929 1466.494528
-144.000000 -1101.751442 1466.538635
-144.000000 -1103.750956 1466.582742
-144.000000 -1105.750470 1466.626849
-144.000000 -1107.749983 1466.670956
-144.000000 -1109.749497 1466.715062
-144.000000 -1111.749010 1466.759169
-144.000000 -1113.748524 1466.803276
-144.000000 -1115.748037 1466.847383
-144.000000 -1117.747551 1466.891490
-144.000000 -1119.747065 1466.935597
-144.000000 -1121.746578 1466.979704
-144.000000 -1123.746092 1467.023811
-144.000000 -1125.745605 1467.067918
-144.000000 -1127.745119 1467.112025
-144.000000 -1129.744633 1467.156132
-144.000000 -1131.744146 1467.200239
-144.000000 -1133.743660 1467.244345
-144.000000 -1135.743173 1467.288452
-144.000000 -1137.742687 1467.332559
-144.000000 -1139.742200 1467.376666
-144.000000 -1141.741714 1467.420773
-144.000000 -1143.741228 1467.464880
-144.000000 -1145.740741 1467.508987
-144.000000 -1147.740255 1467.553094
-144.000000 -1149.739768 1467.597201
-144.000000 -1151.739282 1467.641308
-144.000000 -1153.738796 1467.685415
-144.000000 -1155.738309 1467.729522
-144.000000 -1157.737823 1467.773628
-144.000000 -1159.737336 1467.817735
-144.000000 -1161.736850 1467.861842
-144.000000 -1163.736364 1467.905949
-144.000000 -1165.735877 1467.950056
-144.000000 -1168.000000 1468.000000
-145.993092 -1168.166091 1468.000000
-147.986183 -1168.332182 1468.000000
-149.979275 -1168.498273 1468.000000
-151.972366 -1168.664364 1468.000000
-153.965458 -1168.830455 1468.000000
-155.958549 -1168.996546 1468.000000
-157.951641 -1169.162637 1468.000000
-159.944732 -1169.328728 1468.000000
-161.937824 -1169.494819 1468.000000
-163.930915 -1169.660910 1468.000000
-165.924007 -1169.827001 1468.000000
-167.917098 -1169.993092 1468.000000
-169.910190 -1170.159182 1468.000000
-171.903281 -1170.325273 1468.000000
-173.896373 -1170.491364 1468.000000
-175.889464 -1170.657455 1468.000000
-177.882556 -1170.823546 1468.000000
-179.875647 -1170.989637 1468.000000
-181.868739 -1171.155728 1468.000000
-183.861830 -1171.321819 1468.000000
-185.854922 -1171.487910 1468.000000
-187.848013 -1171.654001 1468.000000
-189.841105 -1171.820092 1468.000000
-191.834196 -1171.986183 1468.000000
-193.827288 -1172.152274 1468.000000
-195.820379 -1172.318365 1468.000000
-197.813471 -1172.484456 1468.000000
-199.806562 -1172.650547 1468.000000
-201.799654 -1172.816638 1468.000000
-203.792745 -1172.982729 1468.000000
-205.785837 -1173.148820 1468.000000
-207.778929 -1173.314911 1468.000000
-209.772020 -1173.481002 1468.000000
-211.765112 -1173.647093 1468.000000
-213.758203 -1173.813184 1468.000000
-215.751295 -1173.979275 1468.000000
-217.744386 -1174.145366 1468.000000
-219.737478 -1174.311456 1468.000000
-221.730569 -1174.477547 1468.000000
-223.723661 -1174.643638 1468.000000
-225.716752 -1174.809729 1468.000000
-227.709844 -1174.975820 1468.000000
-229.702935 -1175.141911 1468.000000
-231.696027 -1175.308002 1468.000000
-233.689118 -1175.474093 1468.000000
-235.682210 -1175.640184 1468.000000
-237.675301 -1175.806275 1468.000000
-239.668393 -1175.972366 1468.000000
-241.661484 -1176.138457 1468.000000
-243.654576 -1176.304548 1468.000000
-245.647667 -1176.470639 1468.000000
-247.640759 -1176.636730 1468.000000
-249.633850 -1176.802821 1468.000000
-251.626942 -1176.968912 1468.000000
-253.620033 -1177.135003 1468.000000
-255.613125 -1177.301094 1468.000000
-257.606216 -1177.467185 1468.000000
-259.599308 -1177.633276 1468.000000
-261.592399 -1177.799367 1468.000000
-263.585491 -1177.965458 1468.000000
-265.578583 -1178.131549 1468.000000
-267.571674 -1178.297640 1468.000000
-269.564766 -1178.463730 1468.000000
-271.557857 -1178.629821 1468.000000
-273.550949 -1178.795912 1468.000000
-275.544040 -1178.962003 1468.000000
-277.537132 -1179.128094 1468.000000
-279.530223 -1179.294185 1468.000000
-281.523315 -1179.460276 1468.000000
-283.516406 -1179.626367 1468.000000
-285.509498 -1179.792458 1468.000000
-287.502589 -1179.958549 1468.000000
-289.495681 -1180.124640 1468.000000
-291.488772 -1180.290731 1468.000000
-293.481864 -1180.456822 1468.000000
-295.474955 -1180.622913 1468.000000
-297.468047 -1180.789004 1468.000000
-299.461138 -1180.955095 1468.000000
-301.454230 -1181.121186 1468.000000
-303.447321 -1181.287277 1468.000000
-305.440413 -1181.453368 1468.000000
-307.433504 -1181.619459 1468.000000
-309.426596 -1181.785550 1468.000000
-311.419687 -1181.951641 1468.000000
-313.412779 -1182.117732 1468.000000
-315.405870 -1182.283823 1468.000000
-317.398962 -1182.449913 1468.000000
-319.392053 -1182.616004 1468.000000
-321.385145 -1182.782095 1468.000000
-323.378236 -1182.948186 1468.000000
-325.371328 -1183.114277 1468.000000
-327.364420 -1183.280368 1468.000000
-329.357511 -1183.446459 1468.000000
-331.350603 -1183.612550 1468.000000
-333.343694 -1183.778641 1468.000000
-335.336786 -1183.944732 1468.000000
-337.329877 -1184.110823 1468.000000
-339.322969 -1184.276914 1468.000000
-341.316060 -1184.443005 1468.000000
-343.309152 -1184.609096 1468.000000
-345.302243 -1184.775187 1468.000000
-347.295335 -1184.941278 1468.000000
-349.288426 -1185.107369 1468.000000
-351.281518 -1185.273460 1468.000000
-353.274609 -1185.439551 1468.000000
-355.267701 -1185.605642 1468.000000
-357.260792 -1185.771733 1468.000000
-359.253884 -1185.937824 1468.000000
-361.246975 -1186.103915 1468.000000
-363.240067 -1186.270006 1468.000000
-365.233158 -1186.436097 1468.000000
-367.226250 -1186.602187 1468.000000
-369.219341 -1186.768278 1468.000000
-371.212433 -1186.934369 1468.000000
-373.205524 -1187.100460 1468.000000
-375.198616 -1187.266551 1468.000000
-377.191707 -1187.432642 1468.000000
-379.184799 -1187.598733 1468.000000
-381.177890 -1187.764824 1468.000000
-383.170982 -1187.930915 1468.000000
-385.164073 -1188.097006 1468.000000
-387.157165 -1188.263097 1468.000000
-389.150257 -1188.429188 1468.000000
-391.143348 -1188.595279 1468.000000
-393.136440 -1188.761370 1468.000000
-395.129531 -1188.927461 1468.000000
-397.122623 -1189.093552 1468.000000
-399.115714 -1189.259643 1468.000000
-401.108806 -1189.425734 1468.000000
-403.101897 -1189.591825 1468.000000
-405.094989 -1189.757916 1468.000000
-407.088080 -1189.924007 1468.000000
-409.081172 -1190.090098 1468.000000
-411.074263 -1190.256189 1468.000000
-413.067355 -1190.422280 1468.000000
-415.060446 -1190.588371 1468.000000
-417.053538 -1190.754461 1468.000000
-419.046629 -1190.920552 1468.000000
-421.039721 -1191.086643 1468.000000
-423.032812 -1191.252734 1468.000000
-425.025904 -1191.418825 1468.000000
-427.018995 -1191.584916 1468.000000
-429.012087 -1191.751007 1468.000000
-431.005178 -1191.917098 1468.000000
-432.998270 -1192.083189 1468.000000
-434.991361 -1192.249280 1468.000000
-436.984453 -1192.415371 1468.000000
-438.977544 -1192.581462 1468.000000
-440.970636 -1192.747553 1468.000000
-442.963727 -1192.913644 1468.000000
-444.956819 -1193.079735 1468.000000
-446.949911 -1193.245826 1468.000000
-448.943002 -1193.411917 1468.000000
-450.936094 -1193.578008 1468.000000
-452.929185 -1193.744099 1468.000000
-454.922277 -1193.910190 1468.000000
-456.915368 -1194.076281 1468.000000
-458.908460 -1194.242372 1468.000000
-460.901551 -1194.408463 1468.000000
-462.894643 -1194.574554 1468.000000
-464.887734 -1194.740645 1468.000000
-466.880826 -1194.906735 1468.000000
-468.873917 -1195.072826 1468.000000
-470.867009 -1195.238917 1468.000000
-472.860100 -1195.405008 1468.000000
-474.853192 -1195.571099 1468.000000
-476.846283 -1195.737190 1468.000000
-478.839375 -1195.903281 1468.000000
-480.832466 -1196.069372 1468.000000
-482.825558 -1196.235463 1468.000000
-484.818649 -1196.401554 1468.000000
-486.811741 -1196.567645 1468.000000
-488.804832 -1196.733736 1468.000000
-490.797924 -1196.899827 1468.000000
-492.791015 -1197.065918 1468.000000
-494.784107 -1197.232009 1468.000000
-496.777198 -1197.398100 1468.000000
-498.770290 -1197.564191 1468.000000
-500.763381 -1197.730282 1468.000000
-502.756473 -1197.896373 1468.000000
-504.749564 -1198.062464 1468.000000
-506.742656 -1198.228555 1468.000000
-508.735748 -1198.394646 1468.000000
-510.728839 -1198.560737 1468.000000
-512.721931 -1198.726828 1468.000000
-514.715022 -1198.892919 1468.000000
-516.708114 -1199.059009 1468.000000
-518.701205 -1199.225100 1468.000000
-520.694297 -1199.391191 1468.000000
-522.687388 -1199.557282 1468.000000
-524.680480 -1199.723373 1468.000000
-526.673571 -1199.889464 1468.000000
-528.666663 -1200.055555 1468.000000
-530.659754 -1200.221646 1468.000000
-532.652846 -1200.387737 1468.000000
-534.645937 -1200.553828 1468.000000
-536.639029 -1200.719919 1468.000000
-538.632120 -1200.886010 1468.000000
-540.625212 -1201.052101 1468.000000
-542.618303 -1201.218192 1468.000000
-544.611395 -1201.384283 1468.000000
-546.604486 -1201.550374 1468.000000
-548.597578 -1201.716465 1468.000000
-550.590669 -1201.882556 1468.000000
-552.583761 -1202.048647 1468.000000
-554.576852 -1202.214738 1468.000000
-556.569944 -1202.380829 1468.000000
-558.563035 -1202.546920 1468.000000
-560.556127 -1202.713011 1468.000000
-562.549218 -1202.879102 1468.000000
-564.542310 -1203.045192 1468.000000
-566.535401 -1203.211283 1468.000000
-568.528493 -1203.377374 1468.000000
-570.521585 -1203.543465 1468.000000
-572.514676 -1203.709556 1468.000000
-574.507768 -1203.875647 1468.000000
-576.500859 -1204.041738 1468.000000
-578.493951 -1204.207829 1468.000000
-580.487042 -1204.373920 1468.000000
-582.480134 -1204.540011 1468.000000
-584.473225 -1204.706102 1468.000000
-586.466317 -1204.872193 1468.000000
-588.459408 -1205.038284 1468.000000
-590.452500 -1205.204375 1468.000000
-592.445591 -1205.370466 1468.000000
-594.438683 -1205.536557 1468.000000
-596.431774 -1205.702648 1468.000000
-598.424866 -1205.868739 1468.000000
-600.417957 -1206.034830 1468.000000
-602.411049 -1206.200921 1468.000000
-604.404140 -1206.367012 1468.000000
-606.397232 -1206.533103 1468.000000
-608.390323 -1206.699194 1468.000000
-610.383415 -1206.865285 1468.000000
-612.376506 -1207.031376 1468.000000
-614.369598 -1207.197466 1468.000000
-616.362689 -1207.363557 1468.000000
-618.355781 -1207.529648 1468.000000
-620.348872 -1207.695739 1468.000000
-624.000000 -1208.000000 1468.000000
-625.999748 -1208.022469 1467.977531
-627.999495 -1208.044938 1467.955062
-629.999243 -1208.067407 1467.932593
-631.998990 -1208.089876 1467.910124
-633.998738 -1208.112345 1467.887655
-635.998485 -1208.134814 1467.865186
-637.998233 -1208.157284 1467.842716
-639.997980 -1208.179753 1467.820247
-641.997728 -1208.202222 1467.797778
-643.997476 -1208.224691 1467.775309
-645.997223 -1208.247160 1467.752840
-647.996971 -1208.269629 1467.730371
-649.996718 -1208.292098 1467.707902
-651.996466 -1208.314567 1467.685433
-653.996213 -1208.337036 1467.662964
-655.995961 -1208.359505 1467.640495
-657.995708 -1208.381974 1467.618026
-659.995456 -1208.404443 1467.595557
-661.995204 -1208.426912 1467.573088
-663.994951 -1208.449381 1467.550619
-665.994699 -1208.471851 1467.528149
-667.994446 -1208.494320 1467.505680
-669.994194 -1208.516789 1467.483211
-671.993941 -1208.539258 1467.460742
-673.993689 -1208.561727 1467.438273
-675.993436 -1208.584196 1467.415804
-677.993184 -1208.606665 1467.393335
-679.992932 -1208.629134 1467.370866
-681.992679 -1208.651603 1467.348397
-683.992427 -1208.674072 1467.325928
-685.992174 -1208.696541 1467.303459
-687.991922 -1208.719010 1467.280990
-689.991669 -1208.741479 1467.258521
-691.991417 -1208.763949 1467.236051
-693.991164 -1208.786418 1467.213582
-695.990912 -1208.808887 1467.191113
-697.990660 -1208.831356 1467.168644
-699.990407 -1208.853825 1467.146175
-701.990155 -1208.876294 1467.123706
-703.989902 -1208.898763 1467.101237
-705.989650 -1208.921232 1467.078768
-707.989397 -1208.943701 1467.056299
-709.989145 -1208.966170 1467.033830
-711.988892 -1208.988639 1467.011361
-713.988640 -1209.011108 1466.988892
-715.988388 -1209.033577 1466.966423
-717.988135 -1209.056046 1466.943954
-719.987883 -1209.078516 1466.921484
-721.987630 -1209.100985 1466.899015
-723.987378 -1209.123454 1466.876546
-725.987125 -1209.145923 1466.854077
-727.986873 -1209.168392 1466.831608
-729.986620 -1209.190861 1466.809139
-731.986368 -1209.213330 1466.786670
-733.986115 -1209.235799 1466.764201
-735.985863 -1209.258268 1466.741732
-737.985611 -1209.280737 1466.719263
-739.985358 -1209.303206 1466.696794
-741.985106 -1209.325675 1466.674325
-743.984853 -1209.348144 1466.651856
-745.984601 -1209.370613 1466.629387
-747.984348 -1209.393083 1466.606917
-749.984096 -1209.415552 1466.584448
-751.983843 -1209.438021 1466.561979
-753.983591 -1209.460490 1466.539510
-755.983339 -1209.482959 1466.517041
-757.983086 -1209.505428 1466.494572
-759.982834 -1209.527897 1466.472103
-761.982581 -1209.550366 1466.449634
-763.982329 -1209.572835 1466.427165
-765.982076 -1209.595304 1466.404696
-767.981824 -1209.617773 1466.382227
-769.981571 -1209.640242 1466.359758
-771.981319 -1209.662711 1466.337289
-773.981067 -1209.685181 1466.314819
-775.980814 -1209.707650 1466.292350
-777.980562 -1209.730119 1466.269881
-779.980309 -1209.752588 1466.247412
-781.980057 -1209.775057 1466.224943
-783.979804 -1209.797526 1466.202474
-785.979552 -1209.819995 1466.180005
-787.979299 -1209.842464 1466.157536
-789.979047 -1209.864933 1466.135067
-791.978795 -1209.887402 1466.112598
-793.978542 -1209.909871 1466.090129
-795.978290 -1209.932340 1466.067660
-797.978037 -1209.954809 1466.045191
-799.977785 -1209.977278 1466.022722
-801.977532 -1209.999748 1466.000252
-803.977280 -1210.022217 1465.977783
-805.977027 -1210.044686 1465.955314
-807.976775 -1210.067155 1465.932845
-809.976523 -1210.089624 1465.910376
-811.976270 -1210.112093 1465.887907
-813.976018 -1210.134562 1465.865438
-815.975765 -1210.157031 1465.842969
-817.975513 -1210.179500 1465.820500
-819.975260 -1210.201969 1465.798031
-821.975008 -1210.224438 1465.775562
-823.974755 -1210.246907 1465.753093
-825.974503 -1210.269376 1465.730624
-827.974251 -1210.291846 1465.708154
-829.973998 -1210.314315 1465.685685
-831.973746 -1210.336784 1465.663216
-833.973493 -1210.359253 1465.640747
-835.973241 -1210.381722 1465.618278
-837.972988 -1210.404191 1465.595809
-839.972736 -1210.426660 1465.573340
-841.972483 -1210.449129 1465.550871
-843.972231 -1210.471598 1465.528402
-845.971979 -1210.494067 1465.505933
-847.971726 -1210.516536 1465.483464
-849.971474 -1210.539005 1465.460995
-851.971221 -1210.561474 1465.438526
-853.970969 -1210.583943 1465.416057
-855.970716 -1210.606413 1465.393587
-857.970464 -1210.628882 1465.371118
-859.970211 -1210.651351 1465.348649
-861.969959 -1210.673820 1465.326180
-863.969707 -1210.696289 1465.303711
-865.969454 -1210.718758 1465.281242
-867.969202 -1210.741227 1465.258773
-869.968949 -1210.763696 1465.236304
-871.968697 -1210.786165 1465.213835
-873.968444 -1210.808634 1465.191366
-875.968192 -1210.831103 1465.168897
-877.967939 -1210.853572 1465.146428
-879.967687 -1210.876041 1465.123959
-881.967435 -1210.898511 1465.101489
-883.967182 -1210.920980 1465.079020
-885.966930 -1210.943449 1465.056551
-887.966677 -1210.965918 1465.034082
-889.966425 -1210.988387 1465.011613
-891.966172 -1211.010856 1464.989144
-893.965920 -1211.033325 1464.966675
-895.965667 -1211.055794 1464.944206
-897.965415 -1211.078263 1464.921737
-899.965163 -1211.100732 1464.899268
-901.964910 -1211.123201 1464.876799
-903.964658 -1211.145670 1464.854330
-905.964405 -1211.168139 1464.831861
-907.964153 -1211.190608 1464.809392
-909.963900 -1211.213078 1464.786922
-911.963648 -1211.235547 1464.764453
-913.963395 -1211.258016 1464.741984
-915.963143 -1211.280485 1464.719515
-917.962891 -1211.302954 1464.697046
-919.962638 -1211.325423 1464.674577
-921.962386 -1211.347892 1464.652108
-923.962133 -1211.370361 1464.629639
-925.961881 -1211.392830 1464.607170
-927.961628 -1211.415299 1464.584701
-929.961376 -1211.437768 1464.562232
-931.961123 -1211.460237 1464.539763
-933.960871 -1211.482706 1464.517294
-935.960618 -1211.505175 1464.494825
-937.960366 -1211.527645 1464.472355
